# .PCD v0.7 - Point Cloud Data file format
VERSION 0.7
FIELDS x y z rgb
SIZE 4 4 4 4
TYPE F F F U
COUNT 1 1 1 1
WIDTH 1046
HEIGHT 1
VIEWPOINT 0 0 0 1 0 0 0
POINTS 1046
DATA ascii
-0.058816109 0.11154 0.61383319 4283447558
-0.050519522 0.11254489 0.61520499 4283118338
-0.040781781 0.1152902 0.61522382 4282855170
-0.030989816 0.11560895 0.61314619 4282591233
-0.025311528 0.11736661 0.60934079 4282263297
0.16966796 0.12802422 0.59366328 4287527751
0.17639367 0.12855685 0.59271979 4287659338
0.18990485 0.12956953 0.59119397 4287528521
0.19374236 0.12955934 0.59223551 4287462732
0.062148642 0.25877148 0.61537838 4278389268
0.066537425 0.25762808 0.61441255 4278256642
0.062429484 0.26105461 0.61340225 4278588462
0.067458019 0.26272595 0.61403334 4278388231
-0.15690427 0.092049576 0.63604504 4282265894
-0.14780885 0.092887923 0.6364274 4286803520
-0.13819025 0.093559787 0.63463879 4287000123
-0.12796958 0.093988776 0.63491166 4286737204
-0.11931475 0.094827339 0.63346201 4286671411
-0.10927521 0.095737956 0.63376409 4286407730
-0.10127857 0.096621744 0.63236713 4286079273
-0.15825337 0.093645975 0.63225305 4281675041
-0.14795513 0.094596386 0.63329756 4286934594
-0.13878584 0.095607385 0.63024592 4286803002
-0.12852901 0.097015552 0.63132644 4286803257
-0.11865509 0.096617833 0.6302765 4286671411
-0.1087347 0.097833134 0.62997121 4286342444
-0.09910658 0.098960429 0.62850565 4286013482
-0.088445783 0.10076366 0.63011861 4285158180
-0.07896021 0.10218681 0.62649399 4284172311
-0.069729179 0.1044648 0.62546629 4283777298
-0.05938537 0.10689793 0.62430751 4283513611
-0.04936054 0.10963191 0.62413901 4282921475
-0.040826079 0.11095776 0.62539518 4282854659
-0.028636092 0.11169717 0.62517369 4282263553
-0.017651225 0.11259204 0.62486666 4280490496
-0.014267955 0.11234294 0.62503725 4279834112
0.17254177 0.12285742 0.60442257 4287397713
0.17902201 0.1240844 0.60350668 4287659594
0.18899131 0.12588818 0.60356951 4287593545
0.19513673 0.12599 0.60362327 4287462216
-0.037190132 0.11261742 0.62354493 4282788867
-0.029406514 0.11357528 0.62355536 4282394880
-0.020273943 0.11556738 0.62195665 4281606656
-0.01170113 0.11708421 0.62125772 4281015552
0.050652321 0.23652753 0.62476754 4278255630
0.05405679 0.24259125 0.62363583 4278256913
0.060204607 0.24557771 0.620498 4278190083
0.06649182 0.24824351 0.61679661 4279704346
0.061182257 0.2529822 0.61783129 4278322186
0.066189304 0.25169927 0.61584508 4278322181
-0.1556157 0.089781046 0.64464396 4284172854
-0.1473358 0.090168975 0.64397937 4286803003
-0.13744576 0.091218144 0.64344347 4287000127
-0.12691706 0.091836974 0.64126396 4286868534
-0.11764493 0.093354955 0.63981193 4286670895
-0.10880379 0.09457463 0.64015681 4286407472
-0.096494131 0.096097678 0.64310163 4285946913
-0.087899052 0.096980728 0.64275223 4285289756
-0.079736829 0.097614557 0.64235169 4284895513
-0.09599521 0.097790249 0.63959187 4285815587
-0.087937504 0.098641694 0.63951039 4285223966
-0.077626146 0.10017481 0.63903487 4284500760
-0.068317324 0.10275591 0.63764703 4283842575
-0.058092698 0.10521499 0.63731825 4283382027
-0.048650812 0.10757887 0.63566333 4282921219
-0.038212053 0.10821757 0.63646448 4282395140
-0.030235035 0.11016521 0.63200092 4281936128
-0.020288333 0.11117644 0.62968612 4280687617
-0.007498472 0.11280768 0.63535756 4279370752
-0.00028436771 0.11318236 0.63495177 4278321152
0.17962216 0.12142205 0.61137557 4287659336
0.19013287 0.12232414 0.61316156 4287593801
0.19708803 0.12261593 0.612553 4287330630
-0.0082155969 0.11519614 0.63086611 4280292608
-0.00016066292 0.1168372 0.63156402 4279963136
0.054122638 0.23659223 0.62732148 4278190081
0.058881693 0.2373728 0.62772447 4278519048
0.045531705 0.24697955 0.62767899 4278190080
0.052688364 0.24049403 0.62685937 4278190345
0.059408221 0.24039075 0.62659967 4278255618
0.042601276 0.24950591 0.62836713 4278190080
-0.15570961 0.086518146 0.6543451 4282331932
-0.14507186 0.087398723 0.65372449 4286934331
-0.13621148 0.088376373 0.65413404 4286802746
-0.12627229 0.089357108 0.65234983 4286999861
-0.11612459 0.090588823 0.6523084 4286736431
-0.10594562 0.092174441 0.65073925 4286276139
-0.09683086 0.093396872 0.64964861 4285881638
-0.086541325 0.095480151 0.64875364 4285355296
-0.076501407 0.096996851 0.64714187 4284763675
-0.067971982 0.097959772 0.64855844 4284369432
-0.053323857 0.099398389 0.64935666 4283183108
0.19887109 0.11651673 0.62350219 4287528007
-0.10277678 0.096404709 0.64892143 4286210345
-0.10153131 0.096905515 0.64731467 4286144552
-0.066307597 0.10034202 0.6457662 4284040210
-0.056849942 0.10185879 0.64584196 4283381774
-0.047917742 0.10379069 0.64518565 4282658053
-0.037927732 0.10526571 0.64521801 4281212931
-0.027281096 0.10837881 0.64549726 4280752899
-0.01656664 0.10935613 0.64583069 4279767555
-0.0092445267 0.10984443 0.64237052 4278452224
-0.0027954187 0.11138062 0.63697571 4278190080
0.18336256 0.11970507 0.62259185 4287527495
0.19084445 0.11922091 0.62306094 4287527496
0.19828153 0.11907001 0.62006336 4287528264
-0.013806251 0.11287104 0.64445019 4280426008
-0.012462265 0.1133289 0.64098924 4279370752
0.0065575503 0.11606148 0.63626987 4278190080
-0.15354347 0.08087942 0.66677016 4280096011
-0.13423058 0.082808025 0.66645926 4286803005
-0.10268497 0.085002005 0.66228521 4286539565
-0.15326595 0.083897293 0.66318458 4283843624
-0.14574035 0.084938362 0.66466236 4286803002
-0.13487567 0.085283965 0.66278005 4286934072
-0.1253942 0.086255386 0.66259843 4286868276
-0.11556765 0.086594753 0.66109198 4286868529
-0.10513498 0.087935314 0.66050184 4286473258
-0.095411062 0.089365393 0.65894729 4286013219
-0.085709333 0.091470525 0.65873116 4285617951
-0.076449178 0.094629608 0.65779752 4285026582
-0.065009221 0.09559314 0.65773034 4284303384
-0.057000261 0.097558253 0.65589446 4283448080
-0.046444558 0.099368714 0.65473229 4282394625
-0.038344573 0.099960357 0.65398437 4281802240
-0.0075968141 0.10241434 0.65316361 4282592515
0.18417414 0.11465382 0.63290036 4287265874
0.19205604 0.11528336 0.6325534 4287527495
0.1983438 0.11499286 0.62932301 4287527752
-0.062032729 0.099079549 0.65318954 4283908372
-0.059153464 0.099289864 0.65292358 4283579663
-0.045688875 0.10139714 0.65310025 4282131457
-0.036697377 0.10269422 0.65284401 4281146113
-0.027527664 0.10402094 0.65374291 4280620290
-0.014241111 0.10864861 0.64968646 4279306753
-0.0094882315 0.1046095 0.65027094 4279897090
0.18399175 0.11798356 0.63109291 4287331405
0.19071546 0.11760202 0.63042557 4287461702
-0.15205206 0.078965068 0.6751675 4281477404
-0.14354725 0.079942137 0.67234373 4286999616
-0.13450134 0.081285298 0.67228919 4286868280
-0.12388413 0.08261954 0.67149842 4286934067
-0.11336827 0.082857698 0.6728521 4286802737
-0.10480801 0.083970107 0.67081213 4286670896
-0.094150111 0.085101523 0.67178077 4286406952
-0.087139018 0.085916772 0.67189926 4286012197
-0.14514676 0.082819812 0.67001277 4286868286
-0.13407937 0.083083645 0.66947174 4286934075
-0.1270646 0.083596051 0.66882396 4286934071
-0.11352663 0.085106701 0.66874331 4286802737
-0.1051314 0.085649401 0.66748649 4286539565
-0.093957946 0.086916253 0.66816771 4286144036
-0.083718345 0.087853506 0.66768855 4285749539
-0.074589528 0.091066346 0.66686541 4285289500
-0.066638321 0.091364294 0.6658895 4284697884
-0.031839237 0.10001859 0.66073924 4281670661
-0.028607149 0.099925384 0.66009277 4281473542
0.18664433 0.11158341 0.64105928 4287266134
0.19422252 0.11179407 0.64307821 4287593283
0.19988255 0.111641 0.64063865 4287528266
-0.031922288 0.1011575 0.66045719 4281212416
-0.028420102 0.10137868 0.65979731 4280950018
0.0067847054 0.25088686 0.66789752 4278190080
0.013983171 0.2492473 0.66685468 4278190082
0.019744311 0.25073111 0.6694904 4278191112
0.0064829085 0.25800091 0.67000073 4278190080
0.01296516 0.25851643 0.66924512 4278190080
0.006342113 0.26407003 0.67129391 4278190080
0.011849483 0.26467109 0.67079318 4278190080
-0.15148628 0.075867668 0.68142664 4280492057
-0.14300433 0.076795571 0.68532789 4286539577
-0.13237403 0.078663923 0.68356818 4286933812
-0.12247165 0.079134315 0.68136084 4286934068
-0.11331052 0.080101535 0.68003553 4286934063
-0.10313941 0.081780583 0.67941719 4286671151
-0.093778387 0.083327644 0.67875266 4286473258
-0.083254069 0.084652424 0.67907375 4286012193
-0.07329677 0.085444741 0.67917365 4285486624
0.19817875 0.10584443 0.65495741 4287658817
0.20023024 0.10529285 0.65459663 4287594565
-0.081485331 0.086668275 0.67532808 4285683739
-0.072484799 0.087721035 0.673765 4285486625
-0.067755632 0.087527104 0.67237878 4285224730
0.10543418 0.10700721 0.66315609 4287597173
0.11308234 0.10668957 0.6624223 4287527493
0.19617519 0.10843164 0.65220934 4287724610
0.20038334 0.10857287 0.65069038 4287790411
0.10838901 0.11035484 0.66052717 4287001924
0.11017669 0.11048543 0.66036212 4287001138
0.023901997 0.25267819 0.67032051 4278191375
0.017894821 0.25937349 0.67190689 4278190339
0.023628309 0.25975257 0.67260259 4278191374
0.0060551604 0.26927766 0.67398828 4278190081
0.013678274 0.26888359 0.67413652 4278190083
0.022028597 0.26814795 0.6753847 4278191120
0.0053144759 0.27434218 0.67493933 4278190080
0.013739056 0.27599728 0.67706138 4278190339
0.019601209 0.27519634 0.67650276 4278190860
-0.14835517 0.073304109 0.69373465 4281151039
-0.14157479 0.074252948 0.69046742 4286080049
-0.13165666 0.074523978 0.69236904 4286934068
-0.12157714 0.076018631 0.69273263 4287065396
-0.11186587 0.077445582 0.6901682 4287065650
-0.10157635 0.079026341 0.69178605 4286802223
-0.091909476 0.080510005 0.68941677 4286670636
-0.082306787 0.081994005 0.6876204 4286275878
-0.0749593 0.083010659 0.68679327 4285815582
0.19725963 0.10430048 0.66145861 4287527746
0.10763814 0.10313964 0.67020446 4287134295
0.11590751 0.1024247 0.67030507 4287724358
0.19597279 0.10710388 0.66412151 4287526985
-0.14194779 0.069810346 0.704974 4281939477
-0.12964992 0.070496976 0.70574909 4287130164
-0.11694376 0.071686223 0.70383215 4287262000
-0.11043116 0.072234064 0.70275885 4287262255
-0.10453176 0.072701693 0.70277399 4287195950
-0.093258791 0.07315518 0.70238853 4287197234
0.10179596 0.085884951 0.68391353 4284570690
0.10398167 0.086542264 0.68373138 4284503870
-0.14600934 0.071308143 0.700302 4281414980
-0.14000589 0.072091296 0.70182776 4286474809
-0.12951329 0.072110631 0.70378929 4286999090
-0.12097799 0.073465228 0.70069778 4287065395
-0.11024582 0.075033382 0.69871897 4287065394
-0.10070942 0.075508088 0.69933194 4286999859
-0.090844534 0.076390617 0.69832265 4286867761
-0.080797464 0.078204267 0.69779253 4286539306
-0.074873947 0.078782007 0.69601625 4286276133
0.10966915 0.097489454 0.68195808 4286407978
0.11668908 0.097995393 0.67906129 4287592254
0.12646696 0.099004306 0.68147928 4288053066
0.19593494 0.10265215 0.66992533 4285426008
0.10675376 0.10040232 0.68056345 4287067728
0.12057675 0.10055253 0.67506415 4287921477
0.12401407 0.10116293 0.67911714 4287921482
0.19347866 0.10636967 0.66835123 4284900975
0.10278548 0.077019244 0.69325399 4292732913
0.10775569 0.077803433 0.69281167 4292535793
-0.13702957 0.067972399 0.7118358 4283646235
-0.12906384 0.068903834 0.71183562 4287130932
-0.11976127 0.069634095 0.70933932 4287064368
-0.10825992 0.070733309 0.7090832 4287458353
-0.09906999 0.07146585 0.70840436 4287065391
-0.089143708 0.071730331 0.70738298 4286934319
-0.079846852 0.072693221 0.70764363 4286802220
0.1003601 0.082415894 0.68967688 4288390043
0.10927191 0.083715819 0.68808597 4290560706
0.11785496 0.086000063 0.68954074 4290824134
-0.13556184 0.071443468 0.70836014 4287065652
-0.08546 0.075103149 0.70373338 4286736426
-0.082367286 0.07532905 0.70344776 4286605096
0.10116727 0.091658078 0.69264615 4285757814
0.10785504 0.093088955 0.68966019 4281542427
0.11879405 0.093454957 0.68855733 4284566047
0.12816206 0.094011635 0.68739873 4288315465
0.13380603 0.09382166 0.6866073 4288578379
0.10416523 0.099467218 0.68703955 4287663492
-0.13082419 0.060204931 0.72556055 4280295708
0.10060103 0.074952081 0.70031065 4289179571
0.11031308 0.076636121 0.70041209 4292404206
0.11751428 0.07763093 0.70109081 4292667381
-0.13539231 0.063583732 0.72097707 4280359185
-0.12867042 0.064740971 0.72199988 4285158691
-0.11828169 0.067230336 0.7218194 4287064627
-0.10876807 0.068424419 0.72048175 4287327023
-0.098962732 0.068514749 0.71908486 4287262259
-0.087998204 0.068704233 0.71816236 4286999596
-0.080323324 0.068893418 0.71338731 4286934317
0.097320862 0.078423515 0.69751608 4285889646
0.11408658 0.079487726 0.69696671 4292272365
0.11764333 0.080283515 0.69678515 4292338157
0.12822732 0.089107044 0.69801098 4289764980
0.10211913 0.092955269 0.69662797 4286941071
0.10429285 0.093430355 0.6964398 4286086551
0.12959462 0.090356633 0.69604504 4288777040
-0.12587254 0.059166979 0.73245078 4280820757
-0.11669055 0.060483638 0.73528403 4286934047
-0.10680825 0.061089456 0.73192531 4287196212
-0.096433833 0.061915539 0.7324062 4287131448
-0.091582179 0.062317669 0.73296535 4287000379
0.10423575 0.070126317 0.7100296 4292535789
0.11200059 0.072560266 0.70963359 4292864759
0.11925437 0.074836425 0.70855564 4292996347
-0.12501353 0.062254705 0.73041052 4284566040
-0.11687247 0.063520819 0.72974616 4286999347
-0.10714971 0.064151555 0.72806686 4287327020
-0.09718293 0.064885788 0.72851092 4287262257
-0.087842375 0.066291451 0.72767872 4286999855
-0.081151791 0.06690681 0.73089671 4286868269
0.13115957 0.086294316 0.70952106 4289371001
0.13939369 0.086757988 0.70816445 4288250182
0.13405094 0.089914002 0.70352 4288448073
0.13795902 0.090658851 0.70367974 4288513097
0.097378023 0.060617425 0.71791857 4286282859
0.10327266 0.063724205 0.71989894 4288522924
0.11278369 0.06509164 0.72040671 4292864759
0.11921398 0.066543527 0.72109973 4292864509
-0.12242933 0.057766616 0.73830831 4280556051
-0.11582518 0.058321867 0.74051315 4284237335
-0.11110412 0.059731178 0.73773831 4287984957
-0.098183393 0.061931051 0.73558939 4287262772
0.1015289 0.067932338 0.71700811 4284575853
0.1142875 0.068684056 0.71624994 4292864762
0.11996219 0.069926336 0.71613562 4292732668
0.13681273 0.078162462 0.72189361 4288184647
-0.083424911 0.064311169 0.73427796 4287065139
-0.080657244 0.064947382 0.73403949 4286934065
0.12561205 0.083522558 0.71579969 4292141295
0.13264942 0.081366152 0.71742463 4288581480
0.14169884 0.082422405 0.71709645 4287986751
0.14880523 0.084961154 0.72102028 4288118084
0.1076377 0.060288977 0.72610199 4292141805
0.11160627 0.060714621 0.72528011 4292601590
-0.11079558 0.05617794 0.75200844 4282199820
-0.10552493 0.057807531 0.7514506 4286144299
-0.094840653 0.059754185 0.74905825 4287196724
0.12646241 0.07635586 0.72883976 4292996095
0.13188969 0.077546865 0.72887266 4288648302
0.14453837 0.078543678 0.72775304 4288249411
0.15112683 0.078887232 0.72809893 4287790400
-0.10301154 0.062103927 0.74711442 4287196727
-0.091219202 0.062965311 0.7460255 4287131697
0.1269618 0.080488093 0.72593957 4293061881
0.12971793 0.079984657 0.72565705 4290953418
0.14520618 0.08075361 0.72471523 4287855680
0.15092866 0.082654923 0.72501624 4287790398
-0.099739134 0.049918763 0.76140094 4280624660
-0.095254101 0.050045088 0.76206148 4281214729
-0.11208326 0.053847864 0.75669998 4278255616
-0.10166083 0.054337554 0.75800192 4284567326
-0.095151335 0.05459905 0.76028746 4286933554
0.12874024 0.075493105 0.73562598 4289707224
0.13594328 0.0752538 0.7392031 4288052555
0.14413799 0.075957358 0.73775673 4288249411
0.1514703 0.076045878 0.7356056 4288052292
0.12991852 0.073412336 0.74870181 4290823634
0.13448589 0.071543969 0.74784815 4287593286
0.14526561 0.07272613 0.74647045 4288183361
0.15576904 0.074915402 0.74668956 4288117825
0.16093647 0.075107194 0.74862951 4288183104
0.1381093 0.0665114 0.75750095 4288183621
0.14885253 0.065657981 0.75885677 4286871369
0.15449743 0.067398123 0.75540084 4286412358
0.13026203 0.069166489 0.75667775 4289045400
0.13624415 0.068843395 0.75620699 4288052028
0.14643735 0.069871299 0.75664902 4288117565
0.15604277 0.071306355 0.7523132 4288118593
0.16189042 0.072546452 0.75145346 4288119366
0.13065822 0.064752139 0.76956511 4288781447
0.13747294 0.063869409 0.76861602 4287987267
0.1455242 0.064107165 0.76507747 4286871884
0.13030957 0.067472875 0.76481628 4290296505
0.13276953 0.067260198 0.76306564 4287855686
0.12910794 0.061731346 0.7760365 4289046163
0.13575518 0.060784698 0.77418709 4286871367
-0.35920939 0.14375083 0.92131501 4281482823
-0.34990728 0.14541726 0.9186855 4281351746
-0.36381015 0.1487698 0.92164993 4281680204
-0.35808864 0.15080313 0.92045939 4281416262
-0.34842548 0.14957838 0.91694957 4280890687
-0.36488491 0.14350605 0.92506295 4281680201
-0.35760635 0.14519414 0.9251067 4281482309
-0.023042506 0.054273371 -0.02333159 4282993993
-0.047865186 0.16407807 0.46644965 4283710736
-0.037591796 0.16395588 0.46472958 4285092389
-0.027833393 0.16399378 0.46368754 4286079542
-0.018276192 0.1643074 0.46434662 4287593550
-0.008081153 0.16298766 0.46352217 4287921738
0.0014900903 0.16336136 0.46307141 4288251220
0.012180003 0.16439693 0.46258491 4287922512
0.019133167 0.16460298 0.46232352 4287461701
0.031926505 0.16568786 0.46338373 4288119642
0.043126661 0.16540357 0.46291241 4286869820
0.047644403 0.16617647 0.46294221 4285421583
-0.053882696 0.17222141 0.46820137 4282593543
-0.047692124 0.17113821 0.46639842 4282856715
-0.038068634 0.17152481 0.46417317 4283119373
-0.028007632 0.17143685 0.46231276 4283251213
-0.021830251 0.17405108 0.46207404 4283119113
0.01394982 0.16760324 0.46130598 4285882434
0.019774327 0.17217104 0.45887268 4283843610
0.032221507 0.17295396 0.45966005 4283646741
0.043247163 0.1731185 0.46154353 4283646228
0.049650125 0.17341541 0.46225053 4283514384
-0.054276332 0.1782016 0.46831107 4280491808
-0.047975235 0.17858064 0.46690449 4280623128
-0.037834831 0.17938526 0.46423495 4281213715
-0.028246313 0.18058619 0.46241331 4281082641
-0.021644874 0.17975447 0.46228692 4282001927
0.015399297 0.18153602 0.45911753 4282265867
0.021916555 0.18132372 0.45908657 4281936651
0.031758741 0.18096495 0.45982337 4282330892
0.04145145 0.18075804 0.46078616 4282396687
0.050836213 0.18087493 0.46287528 4282199308
-0.0078415079 0.091914766 0.46955028 4285889920
-0.0059253601 0.097303979 0.47026542 4285166714
-0.053701449 0.15529998 0.47590297 4287461176
-0.075239316 0.16201194 0.47794724 4283250957
-0.06749963 0.160593 0.47543523 4284369176
-0.057481147 0.16060652 0.47226918 4285224223
-0.047650244 0.15902469 0.47187218 4287066424
-0.037797652 0.15917897 0.47204825 4287395905
-0.027875837 0.15955044 0.4702777 4287593025
-0.01776026 0.16051467 0.46981263 4287593286
-0.0073374007 0.15929994 0.47201151 4287790660
0.0027523313 0.15964489 0.47182995 4287725125
0.01243774 0.1605591 0.46953559 4287659074
0.022439573 0.16119911 0.46983308 4287593541
0.032081809 0.16210845 0.4683677 4287725128
0.042261578 0.16248335 0.46815202 4287659333
0.052465614 0.16313994 0.46940526 4287528007
0.061819892 0.16336063 0.46968019 4287133254
0.072982885 0.16407834 0.47139668 4287001683
0.077655762 0.16457449 0.47137415 4285751877
-0.075482018 0.16993865 0.47796723 4282067208
-0.067551561 0.1702597 0.47400695 4282330377
-0.058168054 0.17041273 0.47023144 4282790922
0.041523188 0.16723129 0.46563599 4285947939
0.055007067 0.1713634 0.46492639 4283646223
0.06216998 0.17164637 0.46598428 4283514640
0.072942615 0.17170085 0.4691231 4283449107
0.08010073 0.17261544 0.47208354 4283186452
-0.07516402 0.17557104 0.47826582 4280031531
-0.064043291 0.17605963 0.47262913 4280161552
-0.058500428 0.177104 0.47040838 4280359190
0.055049799 0.18027835 0.46506181 4282265098
0.062128771 0.1802958 0.46612972 4282199566
0.072938606 0.17920454 0.46981889 4282265355
0.081138425 0.17970887 0.47234443 4281674521
-0.035677105 0.060504373 0.47179359 4284836728
-0.028697208 0.063478082 0.47191879 4285232258
-0.03573921 0.070654154 0.47760394 4285099896
-0.026864192 0.069725469 0.4736833 4285363584
-0.034987792 0.076207578 0.47776702 4284437297
-0.012714123 0.091842785 0.47214296 4286547325
-0.0098032216 0.093643799 0.47171029 4285954942
-0.012164955 0.1027801 0.47844279 4286877063
-0.0072811451 0.10122805 0.47400263 4285495163
-0.00084633077 0.10409398 0.47157913 4285889919
-0.012046838 0.10573833 0.4802314 4287798166
-0.0053620292 0.10847925 0.47705892 4285823873
0.002520453 0.11206077 0.47580543 4285692544
-0.0038540997 0.12000785 0.4811551 4286284945
0.0015826325 0.11799259 0.47789776 4286218634
-0.085569032 0.15300305 0.48710725 4286276132
-0.076683842 0.15326905 0.48541945 4287131956
-0.066380993 0.15323943 0.48427844 4287131957
-0.057688233 0.15354596 0.48459566 4287263543
-0.046643261 0.15378605 0.48273262 4287198008
-0.037127219 0.15404905 0.48214373 4286934834
-0.027406549 0.15386964 0.48464614 4286737452
-0.017745964 0.15385792 0.48410204 4286473508
-0.010209053 0.15444088 0.48497346 4286342184
0.0050089937 0.15456308 0.48431605 4286605355
0.013113623 0.15462816 0.48396584 4287330110
0.025212258 0.15472528 0.48344314 4287856970
0.041034523 0.15475118 0.48224959 4287790658
-0.093519434 0.16036054 0.48872682 4282921993
-0.086996451 0.15926385 0.484907 4283250443
-0.078222498 0.15856387 0.48128313 4284303379
-0.067730978 0.15567406 0.48067927 4287395898
-0.056825098 0.15546718 0.48098192 4287395385
-0.046426494 0.15583374 0.48072043 4287461182
-0.036679883 0.15604536 0.47839475 4287329595
-0.026858443 0.15656006 0.4809317 4287264059
-0.017088376 0.15663137 0.48049349 4287198520
-0.0077521093 0.15677667 0.48129141 4287263540
0.0032314837 0.15653449 0.48119575 4287000882
0.013064195 0.15722543 0.48049018 4287527488
0.022841742 0.15737846 0.47913402 4287790919
0.033096619 0.15805539 0.47891214 4287790918
0.041520972 0.15812032 0.47738972 4287790917
0.05348172 0.15889943 0.47900176 4287725126
0.063317545 0.15863058 0.47767577 4287791177
0.072734624 0.15980549 0.47684425 4287856718
0.082619764 0.16107489 0.47673655 4287067721
0.092402421 0.16213885 0.47897369 4285883447
0.099418812 0.16337007 0.48086807 4284436263
-0.093969859 0.16788691 0.48838449 4281213710
-0.086815231 0.16882908 0.48375088 4281607438
-0.080399573 0.16987005 0.48062894 4281804300
0.084242709 0.17013147 0.47459194 4283449367
0.092662729 0.17100693 0.4776288 4283252246
0.10000513 0.17051274 0.48087397 4283252503
-0.079069182 0.17549942 0.48085779 4279509300
0.086094089 0.17776847 0.47501221 4282593294
0.092615806 0.17828432 0.4778266 4281871893
0.10051782 0.17681764 0.48087022 4282135060
-0.07318645 0.091466516 0.49105707 4288654521
-0.068868615 0.092189297 0.48711509 4287799472
-0.073450468 0.096659973 0.49057817 4286746522
-0.068239376 0.096213602 0.48644739 4284837746
-0.10357834 0.15121645 0.49699455 4284104976
-0.096287124 0.15016678 0.49462113 4285815326
-0.087545395 0.15051049 0.49330452 4286934578
-0.076336436 0.14986986 0.49196029 4287395644
-0.066826314 0.15016741 0.49178815 4287066938
-0.056378372 0.15019715 0.49235409 4286342446
-0.046506375 0.15141907 0.49130669 4286276647
-0.036739636 0.1517663 0.49177784 4286013216
-0.026237434 0.15186113 0.49164143 4285815837
-0.015842697 0.15211049 0.49203137 4285026576
-0.0058669746 0.15309173 0.48912027 4285486871
0.0031912189 0.1526389 0.49005485 4285946913
0.012564828 0.15309164 0.49020752 4287329850
0.023747036 0.15377679 0.49063843 4287988042
0.033024244 0.15285675 0.48943299 4288053322
0.045074239 0.15343238 0.4893167 4287922246
0.052545864 0.1536199 0.48845446 4287725124
0.062752135 0.15408912 0.48949316 4287725125
0.07347928 0.1542317 0.48836246 4287790920
0.082923017 0.15399829 0.48934045 4287725129
0.089373365 0.15431209 0.48733959 4287790920
0.10282539 0.15468295 0.490078 4287660107
-0.10547636 0.15880239 0.49644762 4282658566
-0.097898051 0.15813813 0.49182394 4283053321
-0.004805956 0.1550402 0.48669133 4286276392
-0.0013765595 0.15491287 0.48663145 4286473252
0.014820541 0.15485843 0.48943117 4287461952
0.022512697 0.15496026 0.48993877 4287987786
0.032628667 0.15568347 0.48614049 4287856457
0.045176681 0.15651937 0.48652399 4287856454
0.052646294 0.15641738 0.48467192 4287856455
0.063748367 0.15570435 0.48534465 4287725384
0.073378786 0.15608145 0.48504782 4287790919
0.083881795 0.15604821 0.48644146 4287659593
0.093700565 0.15708716 0.48479444 4287659595
0.10346709 0.15939602 0.48539904 4286277687
0.11116854 0.1611587 0.48777726 4284699431
-0.11169975 0.16542427 0.50032389 4279175443
-0.10584571 0.16664588 0.49690729 4280095505
-0.098888949 0.16714115 0.49229503 4281278479
0.10524546 0.17065634 0.48399228 4283186710
0.11258418 0.17004541 0.48759153 4282726159
0.11845057 0.17127837 0.49069422 4282791436
0.10587017 0.17677367 0.48424667 4281675554
0.10902341 0.1765006 0.48515809 4281543971
-0.075881273 0.09241569 0.49503732 4290233548
-0.099032871 0.10100342 0.50475782 4284836979
-0.0832517 0.10030016 0.50144053 4289839057
-0.078399353 0.098188117 0.49687636 4288325811
-0.093600161 0.10649357 0.50495023 4284506706
-0.084779568 0.10448281 0.50294554 4289969872
-0.080747992 0.10384071 0.49915862 4288981177
-0.11454862 0.14890549 0.50630379 4283776787
-0.10666031 0.14730121 0.50318515 4285750051
-0.096232235 0.14566928 0.50451922 4287198263
-0.086026676 0.14688988 0.50294173 4287264058
-0.076977693 0.14689958 0.50163573 4286870329
-0.066834331 0.14709789 0.50067449 4285882670
-0.055856444 0.1468 0.50201988 4284961835
-0.046378456 0.14749146 0.50189614 4284566556
-0.03566619 0.14827092 0.4997611 4284302861
-0.027021335 0.14827576 0.50073862 4284105481
-0.018260278 0.14937735 0.49821353 4283776267
-0.0015350406 0.14913791 0.50258476 4284235784
0.0038900112 0.14947255 0.50121075 4285552414
0.013917915 0.14928029 0.49945366 4287855681
0.02368862 0.15026151 0.49823195 4288053319
0.033814646 0.15038398 0.49859327 4287921990
0.042695865 0.15139188 0.49741757 4287921731
0.054272622 0.15130267 0.4983542 4287790660
0.06392666 0.15116128 0.49743503 4287724868
0.073203616 0.15188044 0.49682885 4287790663
0.084059782 0.15197937 0.49726337 4287790923
0.093485236 0.15268587 0.49573854 4287659594
0.10441646 0.15294999 0.49576634 4287462213
0.11329943 0.15279293 0.49613529 4287528007
0.12168231 0.15302081 0.49802649 4287461959
-0.12151463 0.1592907 0.50991189 4281474575
-0.11601776 0.15751827 0.50546789 4282264580
-0.11021236 0.15648608 0.50092334 4282658821
0.037940595 0.1542394 0.49790758 4287922763
0.042285226 0.15488601 0.49445459 4288053830
0.081795864 0.15426785 0.49899948 4287790922
0.094370984 0.15505117 0.49335584 4287790665
0.10414017 0.15495385 0.49138033 4287528265
0.11548568 0.15832084 0.49237227 4285817651
0.12342391 0.15947765 0.4958449 4284501538
0.12960041 0.16216764 0.49953145 4283252508
-0.11332782 0.16356948 0.50245869 4279896589
0.11773646 0.16689827 0.4917627 4283053584
0.12330147 0.1685518 0.49488652 4282856720
0.12999062 0.16806613 0.49977607 4282726159
-0.13640383 0.093212768 0.51482153 4287136116
-0.11235721 0.095658973 0.51504046 4287273122
-0.10530934 0.097072326 0.50846273 4286349438
-0.096468963 0.10057829 0.50624925 4288323486
-0.087672599 0.10084619 0.50597668 4292008940
-0.10194612 0.10411055 0.50701189 4282266401
-0.096189477 0.10596967 0.50631595 4284043319
-0.089325301 0.1038855 0.50583607 4291086804
-0.12390351 0.14043248 0.51789868 4285551645
-0.11550122 0.14077307 0.51581842 4286671658
-0.10555429 0.14021811 0.51699102 4285422114
-0.096203767 0.14085022 0.51461166 4284501014
-0.086051218 0.14114568 0.51709551 4283710989
-0.079349704 0.14047143 0.51703006 4283776777
-0.046501301 0.14098658 0.51555872 4282196226
-0.034723833 0.14259124 0.50921583 4282657536
-0.13120586 0.14934802 0.52022225 4282462475
-0.12575759 0.14665262 0.51639771 4283250447
-0.11731284 0.14511493 0.51099133 4284895003
-0.10580321 0.14296275 0.51206541 4286935091
-0.095098019 0.14335468 0.51031566 4287000373
-0.085770175 0.14322557 0.51164657 4285290524
-0.078903794 0.14348267 0.51157159 4284566302
-0.062475815 0.14640877 0.50771964 4285027882
-0.055063911 0.14475316 0.50809431 4284172835
-0.045525219 0.1441312 0.51243186 4283316491
-0.037182201 0.14497165 0.50898534 4283118596
-0.028147426 0.14479226 0.5074268 4283051523
0.0062431674 0.14636442 0.50671178 4286736938
0.014476391 0.14573707 0.50819165 4287592511
0.023683401 0.14656034 0.50866258 4287987267
0.033692691 0.14682041 0.50847703 4287921988
0.04483502 0.14710128 0.50817257 4287855937
0.054498993 0.14697583 0.50784338 4287790147
0.063024163 0.14704186 0.50626516 4287790404
0.074685059 0.14843775 0.50697142 4287724870
0.084232353 0.14820904 0.50698143 4287724615
0.094443403 0.14885315 0.50698525 4287659336
0.10360633 0.14926122 0.50519836 4287659336
0.11430036 0.14899808 0.50570232 4287593801
0.12434622 0.1502542 0.50392061 4287461960
0.13303538 0.1510703 0.50641757 4286803773
-0.13221009 0.155635 0.5204668 4280358153
-0.12587747 0.1564907 0.51452833 4281474826
-0.12083957 0.1532162 0.51081169 4282789897
0.12797669 0.15475923 0.50002581 4285421094
0.13408527 0.15864438 0.5040251 4283843867
0.14038235 0.16116075 0.50851816 4283185940
0.13426559 0.16666675 0.50256318 4282791442
0.1412437 0.16602488 0.50901461 4282462995
-0.0019336981 -0.058694206 0.50772625 4287533445
0.006048928 -0.059807628 0.50688857 4287863438
0.015529809 -0.058555454 0.50690454 4288586649
0.022862244 -0.058688991 0.50668758 4287929744
-0.010093831 -0.048239321 0.5092383 4286811259
-0.0038313349 -0.052318364 0.50751281 4287073407
0.0058261212 -0.052234262 0.50523305 4287402630
0.01571737 -0.052220277 0.50513363 4287074180
0.023870161 -0.051780336 0.50670856 4285823344
-0.011446347 -0.042332985 0.509175 4285625446
-0.0045375554 -0.042562202 0.50694185 4286941563
0.0057317158 -0.042227007 0.50512421 4286678651
0.015640784 -0.042555381 0.50650078 4285757036
0.023302829 -0.043728832 0.50812775 4285625450
-0.010900647 -0.0341045 0.50942576 4284112211
-0.0045955591 -0.032267708 0.50746483 4284638555
0.0056916438 -0.032407396 0.50595385 4285230692
0.01525131 -0.032261986 0.50746799 4286415992
-0.0024033189 -0.024742648 0.50986183 4284309847
0.0056851972 -0.022692882 0.50752062 4284638553
0.014916322 -0.022314649 0.50784278 4286349942
0.0070766434 -0.013908511 0.51002598 4284375124
0.01512788 -0.013087895 0.5093559 4285230175
0.010183455 -0.0067530833 0.51160228 4284243538
0.013921344 -0.0065880306 0.51126891 4284374866
-0.14246681 0.098054647 0.52234465 4286020473
-0.13528283 0.097696841 0.52099496 4289179062
-0.12436029 0.098134235 0.52091068 4288522677
-0.11647694 0.09757898 0.51883513 4287272092
-0.14158356 0.10249605 0.52263737 4282138175
-0.13442145 0.10433621 0.52190489 4281411606
-0.12670222 0.10325506 0.5214662 4281279758
-0.11460865 0.10212133 0.52011639 4282004511
-0.13267304 0.13886178 0.52693886 4283711248
-0.12601489 0.13850754 0.52512825 4285816097
-0.11558586 0.13824803 0.52492845 4285356580
-0.105475 0.13790625 0.52467757 4283118858
-0.094595417 0.1387106 0.52374065 4283118339
-0.084909499 0.13896611 0.52319968 4283118597
-0.075761639 0.13906237 0.52630055 4283184135
-0.068121985 0.13984272 0.52652884 4283447568
-0.043813489 0.14084759 0.51820016 4280882952
-0.039574124 0.14128219 0.5183621 4280352768
0.018132096 0.14157128 0.52054077 4287198515
0.0224605 0.14144656 0.51935816 4287198004
0.030493988 0.14188658 0.5213623 4287395394
0.041242026 0.14214945 0.51622623 4287593541
0.067993008 0.14169575 0.51999044 4288053575
0.072220869 0.14181004 0.51872408 4288053578
-0.13511303 0.1459318 0.52599764 4282724879
-0.041278109 0.14245339 0.51819396 4282264581
-0.03958014 0.14267787 0.5184719 4282000386
0.016164506 0.1437747 0.5187403 4287264061
0.025302177 0.14403196 0.51764345 4287592766
0.035959054 0.14448552 0.51907742 4288052546
0.042803872 0.14391939 0.51670569 4287789890
0.054841943 0.14410287 0.51813942 4287658815
0.065748036 0.14475423 0.51815927 4287724606
0.074505456 0.14496389 0.51686299 4287856454
0.083464995 0.14520894 0.51528472 4288053580
0.094862349 0.14515002 0.51578456 4288119631
0.10462348 0.14562663 0.5162068 4288053837
0.11502037 0.14585073 0.51279324 4287922767
0.12499545 0.14656863 0.51448017 4287791182
0.13513492 0.14730632 0.51394582 4287330890
0.14352809 0.15004534 0.51520342 4285883189
-0.14105812 0.15354019 0.53029811 4278715411
-0.13671355 0.15370837 0.52654594 4280161287
0.14498588 0.1578716 0.51384789 4283646487
0.15051672 0.16142081 0.51705891 4282791180
0.14686699 0.16431621 0.51450562 4282594317
-0.011926835 -0.079908773 0.51573515 4289047709
-0.0031751413 -0.080816552 0.51479775 4288652179
0.0065843724 -0.081942782 0.51461005 4288652438
0.016046235 -0.081754744 0.51404494 4288521626
0.026010765 -0.081119344 0.51441157 4288455573
0.035001975 -0.079919696 0.51437169 4288850589
-0.029011581 -0.069019556 0.51847857 4287467141
-0.022728374 -0.072185315 0.5166434 4287862924
-0.013547145 -0.073255643 0.51401556 4288323214
-0.0036793204 -0.072865188 0.51174515 4288389263
0.0059760977 -0.072563186 0.51079881 4288455314
0.016044794 -0.072964557 0.51158673 4288390038
0.025982741 -0.072928093 0.5117451 4288323732
0.035978906 -0.072868973 0.51173949 4288390036
0.043712273 -0.071670935 0.51290739 4288258708
-0.030096008 -0.062907003 0.51855534 4286481017
-0.023723498 -0.063287221 0.51497543 4286809979
-0.014207081 -0.063177027 0.51204878 4287139201
-0.0046567186 -0.063142024 0.50913513 4287402372
0.0060277432 -0.064850509 0.50825232 4287863178
0.016158706 -0.063383356 0.50840658 4288323990
0.026470991 -0.062974185 0.50828981 4288586902
0.036120743 -0.06252481 0.50870681 4287403140
0.045487978 -0.062597051 0.51311302 4285955186
-0.030974243 -0.053471811 0.5186615 4285757035
-0.023691546 -0.053301834 0.51468176 4285493862
-0.014340543 -0.052916743 0.511123 4286085999
-0.0082705626 -0.055435769 0.50959814 4287073666
0.029003801 -0.052817717 0.50816983 4286086770
0.035953071 -0.052509584 0.5091235 4285494891
0.046080686 -0.052890755 0.51341909 4286481787
0.051737428 -0.051361427 0.51632357 4286811008
-0.03010546 -0.044199374 0.51940584 4284901727
-0.023835422 -0.043264396 0.51609069 4284572761
-0.016068699 -0.042882573 0.51173091 4284967258
0.020173207 -0.038741808 0.50966036 4286416251
0.027461566 -0.041552033 0.509121 4285757293
0.035978876 -0.042448163 0.50955319 4286020976
0.045860756 -0.042681459 0.51318145 4286283890
0.052378651 -0.042326391 0.51636124 4286349943
-0.029562609 -0.035760708 0.52077579 4284309846
-0.02388184 -0.033523913 0.51850694 4284244054
-0.015147785 -0.032715838 0.51368928 4284178518
-0.0092173992 -0.02811617 0.51178181 4284309333
0.019782772 -0.033041682 0.51012444 4286481017
0.025826026 -0.032561205 0.50992268 4286086257
0.035841215 -0.032604776 0.51080298 4286218357
0.045931552 -0.032816619 0.51457876 4286547322
0.053093743 -0.032882296 0.51647562 4286547320
-0.022552215 -0.024420705 0.52008331 4284375126
-0.014468582 -0.023124233 0.51627064 4284572505
-0.0057176221 -0.021707986 0.51214564 4284375639
0.019883962 -0.023450669 0.51087189 4286678910
0.025785509 -0.022651993 0.51075858 4286218614
0.035863806 -0.022752333 0.51157159 4286613115
0.045767196 -0.022698119 0.51369941 4286876541
0.054046962 -0.022769615 0.51640046 4286415481
-0.020431662 -0.015601963 0.52164114 4284045899
-0.013776906 -0.013550926 0.51927453 4284177743
-0.0042047091 -0.013294056 0.51450324 4284046158
0.0036854136 -0.010816645 0.51300931 4284309075
0.018478848 -0.0095040351 0.51202703 4284967004
0.025731694 -0.012723789 0.51145738 4286152304
0.035754807 -0.012735516 0.51177418 4286152049
0.04560237 -0.012788661 0.51502544 4284968035
0.052820977 -0.013764739 0.51856393 4284704092
-0.011450921 -0.0060485266 0.52130753 4284638042
-0.0037275753 -0.0034843683 0.51977658 4284375123
0.0057567358 -0.0027493965 0.51600516 4284374865
0.015944997 -0.0021234006 0.51317751 4284308812
0.025723767 -0.0025392007 0.51358026 4284704085
0.03579846 -0.0024314038 0.51428729 4284703826
0.045093995 -0.0035766959 0.51787502 4284703831
0.051855285 -0.007555671 0.5197531 4284638297
0.0001098176 0.0027175602 0.52148813 4284703839
0.006821976 0.0059690578 0.52041042 4284901215
0.015497054 0.0068952236 0.51785225 4284638299
0.025674004 0.007090643 0.518736 4284835420
0.035781745 0.0071212854 0.51888859 4284440663
0.042533245 0.005705188 0.52038854 4284638041
0.0096780397 0.01271863 0.52319151 4285230694
0.016324954 0.015867734 0.52155405 4284967265
0.025457218 0.015247828 0.52202874 4285296489
0.033827197 0.0139568 0.52207297 4285164900
0.019118585 0.023096753 0.52308935 4285164129
-0.1420531 0.13705464 0.53742141 4282396172
-0.13483901 0.13508649 0.53357881 4283513616
-0.12468196 0.13418168 0.53327084 4283842319
-0.1148443 0.1340564 0.53363895 4282920710
-0.10456763 0.13482997 0.53324765 4282788608
-0.095238589 0.13518026 0.53206939 4282788352
-0.084995851 0.1353247 0.53204608 4282657024
-0.074921764 0.13688412 0.53026843 4282723844
-0.067347206 0.13808499 0.52762538 4283052296
0.015988011 0.13910374 0.5309099 4286868527
0.027549004 0.14000517 0.52608305 4287000623
0.033967394 0.14019634 0.52619481 4287198522
0.045734026 0.13962878 0.52843374 4287461435
0.05399093 0.14038143 0.52489972 4287724866
0.062931314 0.14094964 0.52287912 4287922243
0.077082433 0.14087501 0.52239627 4288119372
0.084740959 0.14124559 0.52548414 4287988044
0.095327713 0.14068618 0.52781534 4287921994
0.10460076 0.14099424 0.52701318 4287922507
0.11278331 0.14158455 0.52760452 4288054095
0.12648392 0.14126916 0.52738291 4287659337
0.13431858 0.1414202 0.52467579 4287659337
0.14117528 0.14184104 0.52554339 4287725131
-0.14366189 0.1455055 0.53607666 4281542160
-0.13913245 0.14341664 0.53108037 4282461193
0.015789038 0.14237669 0.52895546 4287000625
0.025667209 0.14249603 0.52563781 4287461428
0.035700742 0.14297926 0.52403104 4287658301
0.045454089 0.14265333 0.5254283 4287592765
0.0542241 0.1429739 0.52257407 4287658813
0.061713967 0.14288113 0.52207989 4287856199
0.075702168 0.14233924 0.52789456 4287988042
0.085715383 0.14321326 0.52250791 4288119375
0.094438054 0.14344926 0.52401763 4288054093
0.10520453 0.14355943 0.52421409 4287922509
0.11497071 0.14390999 0.52298433 4287988048
0.12487253 0.14361343 0.52387667 4287856973
0.13480167 0.14378418 0.52058995 4287527753
0.14576928 0.14522348 0.52163827 4287396422
0.15365164 0.14805828 0.52430719 4285488687
-0.14250292 0.15150769 0.53231049 4279437332
0.15478359 0.1573386 0.52274853 4283186455
0.16120583 0.1573759 0.52779096 4282726164
0.15413672 0.162861 0.52110106 4282593294
0.019451527 -0.099022821 0.5232892 4289442721
0.02293844 -0.099201232 0.5238753 4289508259
-0.010932489 -0.090512037 0.52478635 4289310110
-0.0028402847 -0.090956576 0.52215201 4289639849
0.0070508225 -0.092476964 0.52144253 4289705644
0.016727347 -0.092948906 0.51974326 4289113759
0.026335964 -0.0924557 0.52003008 4289113503
0.035839301 -0.091464452 0.52133465 4289376933
0.044405807 -0.08964365 0.52330709 4289245347
-0.030744059 -0.080778964 0.52681231 4288850334
-0.022942955 -0.082508139 0.5228219 4289179041
-0.013823705 -0.084787279 0.52124327 4289113247
-0.0037312836 -0.085967183 0.51823658 4289310370
0.004671176 -0.086350486 0.51688641 4288389784
0.016865138 -0.086838879 0.51689601 4287995534
0.027057119 -0.086082555 0.5169422 4288390038
0.036850389 -0.084908552 0.51779723 4289113762
0.046133667 -0.083180383 0.51963079 4289114276
0.054372672 -0.081186101 0.52193129 4288258454
-0.039845433 -0.072028056 0.52716327 4287468168
-0.033576198 -0.074033163 0.52432066 4287797389
-0.02590449 -0.076015659 0.52004534 4288586386
0.048447117 -0.073833831 0.51743096 4287863951
0.05600683 -0.073042355 0.52072102 4287929746
0.062748298 -0.069896519 0.5242272 4288127127
-0.041158408 -0.064192921 0.52681231 4286217845
-0.034787066 -0.064212717 0.52285618 4286547064
0.05065183 -0.064915642 0.51669866 4286547834
0.056436528 -0.063047014 0.51953471 4286218616
0.0633744 -0.063994639 0.52404749 4286284409
-0.042243235 -0.054186046 0.52698654 4285362533
-0.035773207 -0.05393789 0.52264142 4285691241
0.05091729 -0.053210616 0.51721859 4286744449
0.056968577 -0.053458646 0.52018124 4286876544
0.064425819 -0.053649001 0.52392584 4287008643
-0.041994169 -0.044540957 0.5282951 4284573020
-0.035014197 -0.043788187 0.52370429 4284638554
0.057692442 -0.043493293 0.51963866 4286547323
0.06565465 -0.042932987 0.52327722 4286678909
-0.041296385 -0.034573808 0.52966058 4284375384
-0.033993341 -0.033677764 0.52486706 4284375384
0.058465503 -0.033458639 0.52022684 4286481530
0.065832213 -0.033254817 0.5235852 4286087029
-0.040277593 -0.02572795 0.53150344 4284046160
-0.033666864 -0.024225149 0.52775735 4283980366
-0.026667003 -0.022514641 0.52386731 4284309331
0.059262026 -0.023208793 0.52000254 4286086772
0.065890417 -0.023427173 0.52377939 4286218611
0.071955286 -0.020394463 0.5279057 4285757542
-0.039157934 -0.019526713 0.53284442 4284310365
-0.03281593 -0.01501219 0.53029996 4284506974
-0.024717992 -0.013781372 0.52596021 4284375385
-0.017728616 -0.0099917129 0.52361625 4284507232
0.05789423 -0.013061073 0.52175981 4284638298
0.066160575 -0.013844922 0.52534074 4284506970
0.072281003 -0.016676512 0.52818286 4284441687
-0.030489905 -0.0072132219 0.53225851 4284835682
-0.023925349 -0.0044008382 0.52900869 4284770146
-0.01493677 -0.0027894564 0.52587754 4284506972
-0.007004505 0.00080423243 0.52432728 4284440404
0.049390662 -0.00069618598 0.52203053 4284440143
0.056363903 -0.0035234187 0.5244143 4284506710
0.064405359 -0.0042798948 0.52804416 4284375378
-0.021715187 0.0048406878 0.53240693 4284901477
-0.013673727 0.0057974318 0.53035015 4284770144
-0.0038610701 0.006368313 0.52701336 4284769886
0.0033281532 0.0083302911 0.52529079 4284835679
0.047204372 0.0069314381 0.52434194 4284901727
0.055477012 0.0061884075 0.52764124 4284967520
0.061828297 0.00259664 0.52965039 4284836450
-0.011919551 0.012241853 0.53354621 4284967009
-0.0032843975 0.015250305 0.53162229 4285098851
0.0057205996 0.016137131 0.52786064 4285296232
0.012727759 0.019155242 0.52473414 4285296230
0.02709569 0.019413583 0.52427977 4285427816
0.036676358 0.017435271 0.52480781 4284572504
0.045705453 0.015736781 0.52763361 4283979848
0.054467916 0.013911251 0.53018647 4284177230
-0.00069769216 0.025312025 0.53384572 4285691247
0.0060890438 0.025836188 0.53040183 4285625195
0.015637157 0.026607331 0.52741808 4284966748
0.026148524 0.02614776 0.52762324 4284703575
0.035407636 0.024761824 0.5301463 4284111440
0.041974425 0.02170014 0.53252029 4283716681
-0.00013067084 0.031998839 0.53480852 4285494375
0.0064182235 0.033505235 0.53353715 4285032533
0.015854338 0.033750452 0.53266007 4284439369
0.026337406 0.032924119 0.53207779 4284308039
0.032623664 0.030913407 0.53365266 4284111439
-0.14230457 0.12811771 0.54749191 4283317014
-0.1341664 0.12850735 0.54617763 4282592515
-0.12518691 0.12893748 0.54504323 4282525696
-0.10091212 0.12939902 0.54597312 4282262528
-0.094584458 0.12920754 0.54520154 4282327552
-0.15066408 0.13654637 0.54896539 4282660890
-0.14494467 0.13320732 0.54376256 4282791443
-0.13492967 0.13082746 0.54285997 4282987274
-0.12434103 0.1304532 0.54249293 4282722816
-0.11401648 0.13056353 0.54177254 4282591744
-0.10410415 0.13130958 0.54190558 4282590720
-0.094411515 0.13163653 0.5418148 4282394112
-0.086706288 0.13196935 0.54025674 4282131200
0.020332621 0.13792512 0.53836495 4286473511
0.02431385 0.13875459 0.53803021 4286539558
0.036119342 0.13896817 0.53934574 4286670886
0.040648032 0.13895932 0.53499526 4287000362
0.066863216 0.13903923 0.53568673 4287593026
0.075437889 0.13875636 0.5361554 4287593282
0.085006118 0.13969451 0.53182292 4287790665
0.095434144 0.13845816 0.53366178 4287921996
0.10613354 0.13891637 0.53418726 4288054095
0.1155535 0.13936302 0.53386116 4287922767
0.12498607 0.13881415 0.53253311 4287659337
0.1354153 0.13926077 0.53129834 4287725131
0.14557733 0.13992906 0.5328424 4287725132
0.15388368 0.1403816 0.53196478 4287594057
0.16144516 0.14145249 0.53667283 4287528004
-0.15233713 0.1432053 0.54827785 4280162055
-0.14826779 0.143639 0.54238826 4281477137
0.020129163 0.14182404 0.53386015 4286934303
0.02385631 0.14156809 0.53493172 4286868781
0.035226699 0.1409516 0.53915417 4287132466
0.06784001 0.14196594 0.53550923 4287922242
0.071765214 0.1422568 0.53481001 4287987786
0.087814003 0.14156228 0.53187668 4288053331
0.11363603 0.1425748 0.52982014 4288054094
0.14749588 0.14249934 0.52962083 4287659854
0.15720783 0.14457302 0.5295434 4286409269
0.16307501 0.14736801 0.5334866 4284567331
0.15830588 0.15475751 0.5294866 4283581470
0.16324864 0.15400928 0.53177726 4283251993
-0.010168168 -0.10046346 0.53466552 4289705643
-0.0029026761 -0.10142088 0.53307551 4289705644
0.0073770341 -0.10179208 0.53079194 4289771433
0.01689177 -0.10404213 0.52989483 4289442723
0.027266983 -0.10303646 0.52984232 4289705640
0.036477614 -0.10225084 0.53044504 4289705643
0.044574119 -0.10098537 0.53173965 4289640358
-0.029303772 -0.091421016 0.53614646 4289376932
-0.022261383 -0.092828095 0.53278601 4289376939
-0.013018579 -0.094948314 0.53041649 4289508265
-0.0031810859 -0.096765168 0.52911586 4289771438
0.0055748774 -0.097615413 0.52688694 4289837743
0.012741732 -0.098715588 0.52586645 4289574829
0.028928844 -0.097621359 0.52581632 4289376416
0.037818566 -0.096608855 0.52732772 4289442729
0.046775058 -0.094492696 0.52807635 4289179813
0.055983424 -0.092057973 0.53031641 4289179559
0.063739926 -0.089972585 0.53268343 4289179809
-0.041207176 -0.082717396 0.53531462 4288455321
-0.032930922 -0.08512181 0.53137392 4289179301
-0.024389829 -0.087649412 0.52938968 4289442730
0.051150382 -0.088234603 0.52483726 4289048485
0.058293037 -0.084952608 0.52670592 4288719518
0.065467343 -0.082928374 0.529567 4288126870
0.072361119 -0.079922751 0.53225672 4287468681
-0.049677413 -0.073938765 0.53719682 4287007874
-0.043769654 -0.075261913 0.53279769 4287600525
-0.037928525 -0.079396307 0.5291003 4288782749
0.060359027 -0.077110484 0.52527231 4287601041
0.066999063 -0.074246451 0.52835226 4287798417
0.073745355 -0.072751708 0.53252679 4287995539
-0.051175017 -0.064934462 0.53680056 4286086514
-0.046272624 -0.064749427 0.53189474 4286086513
0.06867718 -0.06400305 0.52791339 4286218101
0.075357884 -0.063828334 0.53232676 4286086512
-0.051789518 -0.054917611 0.53691024 4285297000
-0.04721256 -0.055111781 0.53228438 4285165414
0.069438964 -0.053895339 0.52778536 4287008647
0.076024547 -0.053423569 0.53180599 4287073923
-0.05209171 -0.045037713 0.53811848 4285099620
-0.047000315 -0.044102564 0.53312063 4284902244
0.070139013 -0.045857579 0.52714729 4286942338
0.076588511 -0.044081368 0.53149033 4286613373
0.082562454 -0.043446168 0.53567386 4286481529
-0.051841799 -0.035356782 0.53978962 4284046675
-0.04636506 -0.034770627 0.53528279 4284309333
0.07081423 -0.034167185 0.52787983 4286153335
0.076348267 -0.033976756 0.53117204 4286087029
0.083298109 -0.033721898 0.53593546 4285823859
-0.050094225 -0.025772955 0.54142672 4284047192
-0.04448282 -0.024353668 0.53674632 4284046677
0.070774712 -0.025632121 0.5285508 4286284410
0.076587826 -0.024218414 0.53259593 4285363304
0.082725398 -0.027028978 0.53625083 4285297511
-0.048406448 -0.019361034 0.54280108 4284178526
-0.04263575 -0.01528215 0.53949201 4284506973
-0.036985751 -0.013026904 0.53493208 4284572769
0.07084243 -0.010584638 0.53173566 4284178524
0.076955028 -0.013917852 0.53554136 4284770656
0.082138009 -0.012871327 0.53780276 4284968037
-0.05267426 -0.0044656657 0.54029042 4285493598
-0.041664302 -0.0054021552 0.54174727 4285362274
-0.034024209 -0.004101878 0.53741062 4284638557
-0.028152153 -0.0003072191 0.53487283 4284639331
0.069012746 -0.0024863891 0.53185874 4284309841
0.075219624 -0.0049745925 0.53673005 4284901468
-0.051825058 0.0049450826 0.53912395 4284441692
-0.046535596 0.004509313 0.5383991 4285559399
-0.032501832 0.0044384031 0.54065901 4284572508
-0.025548562 0.0065637948 0.53602123 4284967524
0.060031991 0.0086990064 0.53204811 4284967778
0.065995745 0.0058445111 0.53357953 4284638554
0.073830344 0.0029306319 0.53879434 4284045904
-0.051765855 0.015014262 0.54225308 4285296486
-0.046825189 0.014037841 0.54203713 4286217074
-0.03008776 0.013806673 0.54365045 4285033057
-0.023160027 0.014997784 0.53945857 4285164643
-0.013848877 0.016398743 0.53716516 4285098851
-0.0067496775 0.018835766 0.53643966 4285164903
0.048529413 0.019644827 0.53380603 4283584315
0.056978013 0.016922075 0.53557444 4283650623
