# .PCD v0.7 - Point Cloud Data file format
VERSION 0.7
FIELDS x y z rgb normal_x normal_y normal_z curvature
SIZE 4 4 4 4 4 4 4 4
TYPE F F F U F F F F
COUNT 1 1 1 1 1 1 1 1
WIDTH 505
HEIGHT 1
VIEWPOINT 0 0 0 1 0 0 0
POINTS 505
DATA ascii
-0.055619627 0.051982254 0.80018324 4287395384 -0.062267505 -0.99805182 0.0038445964 0.0359626
-0.064390808 0.053067401 0.79418516 4287460915 -0.047412314 -0.99769664 -0.048506811 0.028278871
-0.072114348 0.054633245 0.78701353 4287658043 -0.0072565377 -0.98043567 -0.19670507 0.0094133643
-0.078611493 0.055990636 0.78066683 4287526968 0.00087466836 -0.974962 -0.22236884 0.0079420172
-0.085728526 0.057587162 0.77415854 4287526452 0.0061191767 -0.9712249 -0.23808445 0.0047629927
-0.092880458 0.05934456 0.76869142 4287526455 0.034707189 -0.96639687 -0.25469995 0.0016057024
-0.1002934 0.061401054 0.76023781 4287197743 0.04475446 -0.96546125 -0.25667325 0.0019830316
-0.10814238 0.061930597 0.75486928 4287395381 0.037477463 -0.96543264 -0.25794321 0.0021080165
-0.11467773 0.063849598 0.74801975 4287527483 0.035413995 -0.96307427 -0.26689589 0.0028524569
-0.12548214 0.061679542 0.74746668 4287723833 -0.034567133 -0.97539765 -0.21772438 0.0096874675
-0.1310423 0.064149976 0.73750174 4287461956 -0.037083879 -0.97503465 -0.21893325 0.0097187683
-0.14500397 0.068192303 0.72420114 4287330361 -0.14525226 -0.97227639 -0.18324879 0.01981614
-0.027469397 0.054181695 0.82610899 4282855172 0.0063733459 -0.9609673 0.27658799 0.035053559
-0.036188364 0.052996695 0.82342267 4283118342 -0.04026676 -0.94206929 0.3329922 0.03665337
-0.043434858 0.050694361 0.81882739 4284368400 -0.095731176 -0.96681666 0.23685555 0.034787957
-0.051362723 0.049979746 0.81128007 4287395635 -0.098696068 -0.97947162 0.1757672 0.036444422
-0.05967468 0.054750502 0.79744685 4287526452 -0.035424545 -0.99933499 -0.0086123571 0.03485664
-0.061775923 0.055007078 0.79681545 4287395379 -0.08066301 -0.9966594 0.012769744 0.0354569
-0.071471155 0.056285545 0.78834921 4287592502 -0.025950745 -0.98610604 -0.16407609 0.013865121
-0.081891179 0.056180708 0.78426808 4287526967 -0.051875271 -0.98989582 -0.13196433 0.018885376
-0.089350998 0.058066681 0.77699673 4287526455 -0.0020197183 -0.97943294 -0.20175883 0.0081219878
-0.095732689 0.059820533 0.77065146 4287460917 0.022142902 -0.97402442 -0.22535691 0.0053456929
-0.10362545 0.060315743 0.76402503 4287329330 0.032316044 -0.96793365 -0.24911791 0.0027931219
-0.1108216 0.062612548 0.75680643 4287263278 0.0055568069 -0.97189409 -0.23535222 0.0067881695
-0.11812061 0.063723862 0.75106382 4287461175 -0.024849564 -0.97205293 -0.2334414 0.0096750213
-0.12700629 0.064448431 0.74554414 4287527227 -0.050243318 -0.97779995 -0.20342678 0.012163946
-0.13313049 0.066253096 0.73966151 4287461178 -0.092066027 -0.97806829 -0.18683052 0.017204806
-0.14023969 0.069241673 0.7307139 4287263799 -0.17250912 -0.97024387 -0.1699027 0.030371986
-0.14857745 0.069452584 0.72478163 4287329848 -0.21131894 -0.96941757 -0.12479329 0.032620937
-0.15602696 0.071339369 0.71891642 4287330363 -0.25628108 -0.9617762 -0.096468344 0.030387955
-0.16495216 0.073082656 0.71380568 4287198786 -0.32417476 -0.94276106 -0.078176856 0.035481401
-0.17158836 0.076201886 0.70724279 4286409273 -0.41958436 -0.9064272 -0.048352897 0.036680117
-0.17647371 0.078896597 0.70139855 4285488179 -0.47528461 -0.87757647 -0.062956512 0.032427594
-0.02879864 0.061006874 0.83064669 4281146633 -0.032233581 -0.87124079 0.4897961 0.029187961
-0.038630903 0.060532175 0.82897627 4281147402 -0.14168529 -0.80668336 0.57374841 0.01544247
-0.17183475 0.079885513 0.71784192 4284107301 -0.49454182 -0.86696893 -0.061583638 0.026574532
-0.17546573 0.082641572 0.71332443 4283647520 -0.51436472 -0.8571372 -0.027279973 0.03414806
-0.17948718 0.086430639 0.70486027 4283515937 -0.58575916 -0.81048465 -0.00049641728 0.025048994
-0.044591397 0.065732419 0.82915956 4279639858 -0.13401684 -0.8107354 0.56986612 0.017641006
-0.17460051 0.086178616 0.72074771 4283054356 -0.61612189 -0.78717655 0.027316481 0.018336266
-0.17781419 0.088404208 0.71719372 4282462741 -0.61809456 -0.78581572 0.021260351 0.024107715
-0.18209438 0.092120856 0.70685935 4282594074 -0.63908303 -0.76909453 0.0081175268 0.022974603
-0.1861842 0.095489353 0.70251155 4280494400 -0.75740284 -0.64766395 0.082894921 0.007401878
-0.0061576068 0.053284943 0.82712841 4282725125 0.022330008 -0.94098133 0.33772045 0.033316057
-0.011717528 0.050199315 0.82334822 4284499475 -0.0076829791 -0.97283936 0.2313534 0.035532411
-0.019714236 0.049173929 0.81890357 4286473515 -0.0077244835 -0.98939276 0.14505817 0.033519864
-0.027080595 0.050585791 0.81172383 4287527228 -0.0097684115 -0.99729687 0.072820961 0.033956349
-0.034788638 0.051328376 0.80605608 4287395124 -0.0015206821 -0.99980819 0.019520737 0.032851648
-0.042276978 0.05279424 0.79902798 4287592249 0.011025816 -0.99259251 -0.12098778 0.017824067
-0.050400585 0.053896725 0.79260105 4287526711 0.031756461 -0.97380286 -0.22516441 0.0034482169
-0.058926702 0.055136934 0.78715503 4287592246 0.042602286 -0.96927261 -0.24227087 0.0026160174
-0.065155894 0.057145551 0.78091139 4287592505 0.04075624 -0.96209866 -0.26963818 0.0014816149
-0.072618425 0.059326783 0.77336544 4287658039 0.039370403 -0.96140403 -0.27230844 0.0014300117
-0.081135839 0.061029762 0.76727664 4287592245 0.03510277 -0.96209908 -0.27043056 0.0010583407
-0.088508666 0.061992809 0.76151568 4287460659 0.036777094 -0.96320117 -0.26625296 0.00081277074
-0.095673949 0.062868625 0.75535345 4287263538 0.037023306 -0.9599418 -0.27774173 0.0013520028
-0.10314816 0.064981222 0.74876988 4287658298 0.04419443 -0.958525 -0.2815606 0.0017369515
-0.11077103 0.066527069 0.74226302 4287658299 0.046130657 -0.95686239 -0.28685492 0.0021899762
-0.11908171 0.066674143 0.73673689 4287658555 0.042515114 -0.9591561 -0.27966318 0.0025624204
-0.12680629 0.069607705 0.72850114 4287329595 0.039869666 -0.96290052 -0.26689413 0.0023685137
-0.13354403 0.070117652 0.72392136 4287264055 0.021798328 -0.96370858 -0.26606417 0.0040805303
-0.14016929 0.072418869 0.71655416 4287395639 0.011718228 -0.96225804 -0.27188531 0.0037219389
-0.14926502 0.073265105 0.71029615 4287395644 -0.076528147 -0.9725191 -0.21988532 0.012514206
-0.1551562 0.075195417 0.7029891 4287264058 -0.17338547 -0.96426982 -0.20030183 0.027052492
-0.16114688 0.076292947 0.6987952 4287066940 -0.23447391 -0.95793605 -0.16546939 0.032501459
-0.16894868 0.07794255 0.69124508 4287330879 -0.31671551 -0.94156808 -0.11463103 0.036685638
-0.0075847507 0.057676069 0.83062875 4282066690 0.034532592 -0.90243697 0.42943567 0.028966798
-0.013872832 0.056310028 0.82902414 4282460932 0.021473318 -0.93914014 0.34286225 0.034100261
-0.021142393 0.054327317 0.82648617 4282986500 -0.010543935 -0.95903486 0.28309131 0.031603526
-0.11053559 0.068733186 0.74188113 4287658298 0.049715236 -0.95548463 -0.29082122 0.0023670474
-0.12177473 0.067700446 0.73990005 4287593018 0.040583715 -0.95945323 -0.27893025 0.0027729941
-0.12898716 0.070402548 0.7313199 4287395385 0.026607931 -0.96411723 -0.26413959 0.0030670823
-0.13684803 0.070236042 0.72607929 4287329336 -0.033118561 -0.96832943 -0.24746905 0.0096927378
-0.14250761 0.072565079 0.71837169 4287330104 -0.041083366 -0.97074461 -0.23657224 0.010096124
-0.15148637 0.073084548 0.71308261 4287395387 -0.17026626 -0.97255224 -0.15859076 0.025710247
-0.15793452 0.075587064 0.70503682 4287264062 -0.23473488 -0.95893824 -0.15917456 0.033205654
-0.16627984 0.076169401 0.70047909 4287132731 -0.35816813 -0.92844069 -0.098553225 0.041477211
-0.17437761 0.079767853 0.69389349 4286606906 -0.43436801 -0.89897573 -0.056270301 0.033736702
-0.17993701 0.083611578 0.68798876 4285423153 -0.49178046 -0.86865062 -0.059978783 0.032566674
-0.18326323 0.088020921 0.6836772 4283975719 -0.56044066 -0.82480896 -0.074804097 0.029529557
-0.0087099075 0.062867075 0.83401376 4279175956 0.028245702 -0.80813009 0.58832633 0.01971625
-0.016728133 0.062685132 0.83267313 4280095245 -0.029225782 -0.79817212 0.60171986 0.017901177
-0.022550523 0.061716229 0.83128464 4280949764 -0.027921349 -0.85853428 0.5119952 0.024188634
-0.18067366 0.087780312 0.69872856 4283647776 -0.59331274 -0.80494642 0.0063662529 0.021118114
-0.18392882 0.09089075 0.69307059 4283318558 -0.61347187 -0.78971553 -0.00095891953 0.024207646
-0.18740326 0.094825029 0.6871202 4282988313 -0.70775735 -0.70616937 -0.020087183 0.020163529
-0.18325832 0.093997627 0.70213163 4282595105 -0.6502617 -0.75927395 0.025731415 0.018683564
-0.18532526 0.095195144 0.69815671 4282465059 -0.66876638 -0.74258423 0.036323607 0.018964587
0.0036789179 -0.027930778 0.75838733 4286877076 0.010295451 -0.38128367 0.92440081 0.021487378
-0.00045776367 -0.025532976 0.75603294 4290101192 -0.0084757507 -0.44497511 0.89550281 0.021411963
0.00023782253 -0.021015465 0.76197469 4285956487 0.079853684 -0.41106749 0.90810072 0.022739653
-0.0039589703 -0.021330208 0.75906271 4289376961 0.040634304 -0.42383724 0.9048264 0.024336504
-0.0025453269 -0.014186405 0.76584417 4288259505 0.061486423 -0.47240764 0.87923276 0.022326447
-0.0056923926 -0.01330702 0.76363307 4288917182 0.065586686 -0.49115622 0.86859882 0.031443704
0.0052877665 0.049016371 0.81896019 4287328568 0.040900294 -0.97779566 0.2055299 0.037875067
-0.01997149 0.052967824 0.79772657 4286935338 0.033636332 -0.97621894 -0.21416059 0.0058310521
-0.021009564 0.053130209 0.79685396 4287065387 0.04242067 -0.97579026 -0.21455383 0.0059222938
0.0084933043 0.054083571 0.82679498 4283053069 0.058735162 -0.93054324 0.36144048 0.027200829
0.0020899177 0.051631168 0.82398617 4283973391 0.030409873 -0.96156752 0.27287877 0.034954362
-0.0050688386 0.050205931 0.8176536 4286802218 -0.0024165977 -0.98624927 0.16524516 0.03708557
-0.011590123 0.052100018 0.80939859 4287460668 0.013424527 -0.99888635 0.045226756 0.034606412
-0.02083537 0.052854225 0.80379391 4287526975 0.035556674 -0.99647659 -0.0759589 0.022244791
-0.027769774 0.053859733 0.79837275 4287329073 0.037968025 -0.98217875 -0.18407315 0.0077419691
-0.035586774 0.055354789 0.7923364 4287592504 0.035923079 -0.96318221 -0.26643804 0.001666822
-0.043984592 0.055870086 0.78613704 4287723833 0.034215465 -0.96008205 -0.27761695 0.0013553546
-0.050385535 0.058519289 0.77944064 4287723320 0.046431184 -0.95423317 -0.29543674 0.0023667712
-0.059276551 0.059948914 0.77216923 4287657784 0.050254703 -0.95423931 -0.2947908 0.0025868069
-0.066370517 0.061334044 0.76694894 4287591988 0.053091198 -0.95258343 -0.29960939 0.0027124791
-0.074413538 0.062969312 0.76115036 4287658038 0.056269303 -0.95496118 -0.29134625 0.0025581564
-0.081019431 0.064905167 0.75344068 4287460660 0.061588109 -0.95283705 -0.29716676 0.002189351
-0.088437408 0.066709429 0.74693149 4287723834 0.056384355 -0.95177388 -0.30157405 0.0027663235
-0.096845627 0.066572055 0.74132097 4287789629 0.043696418 -0.95256627 -0.3011772 0.002082641
-0.10487843 0.068041265 0.73569459 4287592507 0.053203046 -0.95441169 -0.29371271 0.0021531838
-0.11195046 0.070209503 0.72855741 4287593278 0.057749867 -0.95683432 -0.2848379 0.002494382
-0.11975172 0.071389064 0.72434235 4287395644 0.063189417 -0.95652604 -0.28471839 0.002765272
-0.1275962 0.073507696 0.71596819 4287395385 0.039398968 -0.95701009 -0.28736547 0.0030097386
-0.13549685 0.074120447 0.71047282 4287461179 0.034800783 -0.95937461 -0.27998036 0.0027904573
-0.14238507 0.07598947 0.70442724 4287395386 0.015564486 -0.96215481 -0.27205765 0.0024743739
-0.15027714 0.078396708 0.69708765 4287263805 -0.0045169294 -0.96552175 -0.26028216 0.0047519384
-0.15871516 0.079125777 0.69198865 4287198784 -0.10613463 -0.96935076 -0.2215713 0.019229988
-0.16597614 0.080841243 0.68469876 4287396163 -0.22604124 -0.96042788 -0.16273655 0.041065458
-0.17301439 0.081872895 0.67917424 4287199041 -0.31361657 -0.93551761 -0.16263787 0.037260968
-0.17943051 0.083963409 0.67165023 4287067200 -0.38831389 -0.90286493 -0.18451716 0.032519728
-0.18375318 0.086487442 0.66693974 4286080053 -0.4349167 -0.87646455 -0.20653522 0.027755845
0.0068334639 0.060455598 0.83167785 4281146887 0.064642817 -0.83634961 0.5443716 0.018751465
-0.00058999658 0.059111342 0.83043551 4281869571 0.032271281 -0.90725118 0.41934916 0.029883254
-0.12173802 0.072174355 0.72900522 4287593284 0.048887283 -0.96028608 -0.27470016 0.0025642896
-0.14428863 0.078189299 0.7056185 4287395633 0.0055422485 -0.96140844 -0.27506846 0.0025883582
-0.15003872 0.08034113 0.69817972 4287329337 -0.022194639 -0.9686746 -0.24733862 0.0073821978
-0.16067988 0.080137491 0.69403118 4287198269 -0.23898818 -0.95832026 -0.15654537 0.036481421
-0.17138056 0.079940155 0.68727428 4287461956 -0.33991873 -0.93249685 -0.12208314 0.042002171
-0.17774892 0.082444012 0.6818943 4286804287 -0.44914371 -0.88697416 -0.10745335 0.039685499
-0.18331391 0.087466538 0.67645681 4284962862 -0.55121136 -0.82953089 -0.089686483 0.029519122
-0.18618247 0.091294006 0.66965127 4284173862 -0.55657715 -0.81763947 -0.14726484 0.024206584
0.0051441491 0.064751059 0.83414662 4278847513 0.049574003 -0.80250186 0.59458637 0.017559923
-0.0027953684 0.064456716 0.83357048 4279372823 0.014729172 -0.84322691 0.5373559 0.021656211
-0.18704666 0.095244095 0.67992413 4283186715 -0.6893487 -0.722229 -0.05641675 0.019940672
-0.18908386 0.097421676 0.67372751 4283120154 -0.70872617 -0.70140332 -0.07576105 0.018929996
0.028572172 -0.040381342 0.75533175 4289443012 -0.12621751 -0.28050947 0.95151645 0.028748199
0.022865474 -0.04040673 0.75126755 4291811041 -0.1008037 -0.30499166 0.94700515 0.024346495
0.018444359 -0.038801942 0.74792552 4292732401 -0.080945313 -0.32283705 0.94298679 0.026832808
0.026833355 -0.037093244 0.7567147 4285627272 -0.086188585 -0.27036706 0.95889163 0.024988769
0.019242644 -0.036042493 0.75591975 4285757823 -0.041925102 -0.31376046 0.94857603 0.024648791
0.012473494 -0.035464235 0.7525515 4290955988 -0.052661598 -0.37453181 0.92571741 0.024853775
0.016620994 -0.0272251 0.75781041 4284902781 -0.022576898 -0.33842319 0.94072312 0.022415217
0.0079015493 -0.028756578 0.75738323 4286810773 0.013892591 -0.36428311 0.93118453 0.019556919
-6.210804e-05 -0.025801793 0.75419486 4290758354 -0.0084757507 -0.44497517 0.89550281 0.021411939
0.01471591 -0.019134872 0.75941324 4285165432 0.02077961 -0.28694227 0.95772254 0.020916188
0.00598526 -0.020426668 0.76236391 4285625196 0.024962455 -0.37787995 0.92551786 0.021124329
0.0036218464 -0.015238117 0.76562864 4286276657 0.076943606 -0.36342916 0.9284389 0.022741329
0.024399638 0.052385792 0.82247263 4283710477 0.13762112 -0.95254338 0.27151608 0.02682849
0.018564612 0.050811328 0.81925219 4286012187 0.10823352 -0.97320992 0.20284957 0.03247425
0.0098964572 0.050815195 0.81510735 4287131697 0.036917992 -0.99421203 0.10089151 0.035267837
0.0023576915 0.052127898 0.80813193 4287196461 0.036605906 -0.99919015 0.016698312 0.028863173
-0.0049513578 0.053613633 0.80200213 4287131954 0.018696353 -0.99315298 -0.11531286 0.018269992
-0.011648595 0.055386953 0.79475611 4286342441 0.007446155 -0.97046232 -0.241137 0.0086982697
-0.020544767 0.056013942 0.79014617 4285551640 0.039030254 -0.96185327 -0.2707662 0.00094420463
-0.02797699 0.057350084 0.7825529 4286868007 0.042678103 -0.95728225 -0.28598729 0.00086875487
-0.033696026 0.059756547 0.77539659 4287723062 0.052995875 -0.9462651 -0.3190195 0.0018012694
-0.040865898 0.060820267 0.77060378 4287723574 0.067307606 -0.9473803 -0.31295341 0.0019152629
-0.052157342 0.061654583 0.76305705 4287657781 0.059364513 -0.9472487 -0.31495261 0.0035808589
-0.054908007 0.063649923 0.75737602 4287658046 0.064513847 -0.94604903 -0.31753507 0.0033432648
-0.064583242 0.063926697 0.7527138 4287329331 0.070362106 -0.94680166 -0.31403095 0.0035315689
-0.070869297 0.065602213 0.74346572 4287658558 0.094875649 -0.9362883 -0.33817524 0.0040710224
0.022925824 0.056592301 0.82660294 4282921745 0.12300332 -0.92930597 0.3482244 0.027523326
0.01600492 0.054362282 0.82525933 4283249935 0.10057166 -0.91330922 0.39465335 0.027623443
0.0067451 0.050492853 0.81902081 4286341923 0.040932242 -0.97781909 0.20541197 0.037910961
-0.00018304586 0.051836744 0.81220686 4287196718 0.032753788 -0.99702799 0.069727764 0.036238845
-0.0092928708 0.052747682 0.80513656 4287460922 0.01073762 -0.99607241 -0.087885916 0.017927285
-0.01433444 0.054351859 0.79982555 4287329847 -0.0070872456 -0.98715824 -0.15958679 0.013495208
-0.022725821 0.055963829 0.79233503 4286539040 0.044337913 -0.96361268 -0.26359904 0.0010516102
-0.031049967 0.05770383 0.78609169 4287263284 0.046027035 -0.95823413 -0.28225619 0.00083482848
-0.037780792 0.059206218 0.77949208 4287789628 0.030824631 -0.95477557 -0.29572445 0.0024740547
-0.045346618 0.060951188 0.77213413 4287657782 0.051879942 -0.9542492 -0.29447675 0.0024131581
-0.052004367 0.061393693 0.76759183 4287658040 0.044749692 -0.94800848 -0.31508249 0.0026857157
-0.060371995 0.06328772 0.75970906 4287723576 0.067138448 -0.94704646 -0.31399825 0.0032108699
-0.068192422 0.064152822 0.75463349 4287526196 0.074220628 -0.94877642 -0.30710566 0.0029478364
-0.074289382 0.066677034 0.74676889 4287723835 0.068610445 -0.94136858 -0.33032906 0.0035564897
-0.083382428 0.067663774 0.7409234 4287724346 0.078029171 -0.94474196 -0.31839237 0.0036829016
-0.09046489 0.069144756 0.7341736 4287526970 0.083820447 -0.94404948 -0.31897402 0.0033950245
-0.097346097 0.072045296 0.72671485 4287592505 0.080433547 -0.94957423 -0.30304903 0.0034739834
-0.10425302 0.072806567 0.72147918 4287527488 0.07690008 -0.95421439 -0.2890687 0.0036167579
-0.1129249 0.074909091 0.71443117 4287329594 0.056812465 -0.96430296 -0.25863448 0.0029800136
-0.1204237 0.075473428 0.70840669 4287526971 0.043103427 -0.97082907 -0.23586583 0.006263223
-0.128158 0.07661365 0.70336729 4287461437 0.038059071 -0.96398056 -0.26323435 0.0080662556
-0.13676536 0.079369321 0.69544393 4287329593 0.020148069 -0.9587872 -0.2834093 0.0086985491
-0.14405438 0.080119833 0.69101477 4287198264 0.040044054 -0.95464182 -0.2950505 0.0033800774
-0.15131086 0.082464069 0.68322158 4287395904 0.027185947 -0.96013004 -0.27822757 0.0033874565
-0.15892544 0.082438439 0.67840874 4287330114 -0.026893407 -0.96002424 -0.27862144 0.0054893424
-0.16714859 0.084390104 0.67096472 4287198782 -0.18671581 -0.94937283 -0.25264215 0.026714463
-0.1743544 0.085864946 0.6650098 4287198787 -0.26587111 -0.92963934 -0.2551131 0.03175186
-0.18106607 0.088743061 0.65865743 4286869563 -0.41342494 -0.87597299 -0.24849677 0.03092291
-0.18480842 0.092809603 0.65307844 4285684783 -0.48226324 -0.83918428 -0.25137886 0.02977206
0.020743668 0.063193277 0.83155149 4280030218 0.12330678 -0.81236339 0.5699659 0.01509671
0.013667017 0.060764149 0.83085966 4281541639 0.10528846 -0.85566866 0.50670046 0.017597988
-0.1866089 0.093369424 0.66268122 4284173863 -0.53208113 -0.81313664 -0.2360037 0.027118556
-0.18739261 0.096865967 0.65557826 4283779365 -0.52012068 -0.81819081 -0.24502525 0.028956398
-0.18989018 0.10167769 0.66695434 4282792476 -0.68476284 -0.71380651 -0.1468989 0.020494642
-0.19113249 0.10440375 0.66021514 4282332959 -0.70205033 -0.69028068 -0.17503434 0.019438986
-0.025451273 -0.11129849 0.63638711 4288389522 -0.33821934 -0.76799005 0.54387373 0.0092336554
-0.031565756 -0.11154947 0.63006055 4288192661 -0.40210733 -0.79119039 0.46078959 0.0088739004
-0.038341612 -0.11027035 0.62434137 4287732106 -0.47537372 -0.77715033 0.41237944 0.0086534573
-0.045998245 -0.10717081 0.61798996 4287732109 -0.57236087 -0.72329485 0.38632488 0.0066832029
-0.051765025 -0.10497014 0.61345822 4287402883 -0.6226477 -0.70011985 0.34948748 0.005939011
-0.019712746 -0.10498348 0.64678109 4287995023 -0.29628938 -0.68987113 0.66052258 0.0084638717
-0.027250946 -0.10614122 0.64187229 4286744702 -0.35227552 -0.70583588 0.61457086 0.0097769024
-0.034563988 -0.10461275 0.63527679 4286283890 -0.47128278 -0.69379497 0.54455566 0.008046913
-0.042358279 -0.103909 0.62938333 4287205504 -0.53555489 -0.69178116 0.484375 0.0062404657
-0.049466103 -0.10187794 0.62219012 4287337092 -0.6098246 -0.66275513 0.43459064 0.0050122854
-0.055969834 -0.1000608 0.61562765 4287732105 -0.66474885 -0.6461131 0.3750284 0.0055574919
-0.062257171 -0.096459597 0.61092758 4287337604 -0.74432582 -0.58539182 0.32139546 0.0073532742
-0.020522207 -0.097577855 0.65161431 4285099361 -0.30856586 -0.60522574 0.73381793 0.0063771843
-0.029658169 -0.097650006 0.64629155 4285625705 -0.41812205 -0.58886492 0.6916731 0.0068004308
-0.037728876 -0.096697062 0.64079446 4286547320 -0.49357888 -0.59674507 0.63267279 0.005289298
-0.045189708 -0.095698088 0.63433897 4286218099 -0.59407341 -0.5941028 0.54232669 0.0024446435
-0.052619368 -0.093959525 0.62741947 4286416246 -0.64114296 -0.57986116 0.50268888 0.0022211645
-0.05958128 -0.092182741 0.62032652 4286217840 -0.70777071 -0.55944353 0.43137357 0.0038874021
-0.064765573 -0.090125144 0.6138528 4286152303 -0.77802455 -0.53685391 0.32628971 0.0067267371
-0.023768961 -0.089027032 0.65480757 4285427812 -0.37263727 -0.53078926 0.76118582 0.0026056531
-0.032176375 -0.088806629 0.65095133 4286020460 -0.42135978 -0.53157902 0.73476487 0.0035829828
-0.040466398 -0.088158466 0.64555657 4286481010 -0.50826705 -0.5419082 0.6693278 0.0031586068
-0.047830135 -0.087150276 0.63929069 4286876028 -0.59318739 -0.55054283 0.5873934 0.0024477956
-0.055791646 -0.085840464 0.63255072 4287073664 -0.67114949 -0.53614527 0.51196307 0.0028302395
-0.062806875 -0.084282562 0.6258446 4286942335 -0.72695071 -0.50626445 0.46393797 0.0034235267
-0.068228275 -0.081887454 0.61866289 4286679162 -0.80356646 -0.46367753 0.37320662 0.0066376994
-0.026249051 -0.080095112 0.65910566 4285954668 -0.37017658 -0.51023281 0.77629352 0.0020107296
-0.034545511 -0.080303118 0.65535247 4286152049 -0.4351728 -0.51775837 0.73658037 0.0041310154
-0.042917877 -0.079737753 0.650051 4285954666 -0.50865549 -0.51546711 0.68961078 0.0041091046
-0.050950706 -0.079079255 0.6442306 4286283375 -0.60313815 -0.50905532 0.61407393 0.003166222
-0.058219939 -0.077553272 0.63732851 4286349683 -0.68135923 -0.48927376 0.54438996 0.0038398635
-0.065204084 -0.075812399 0.63029063 4286481269 -0.75880849 -0.44311532 0.47734457 0.0037412136
-0.070853651 -0.073713481 0.62283826 4286218098 -0.83494455 -0.40063858 0.37730035 0.0062128324
-0.073250711 -0.075356036 0.61566752 4286283377 -0.86894226 -0.38668337 0.30889237 0.0056772502
-0.029370189 -0.071430467 0.66469216 4286284151 -0.37996274 -0.46607387 0.79900134 0.0033724781
-0.037669569 -0.072332837 0.6605674 4286876028 -0.45343959 -0.4740535 0.75476182 0.0047368393
-0.045665562 -0.071540825 0.65487552 4286941821 -0.52494985 -0.46127856 0.7152968 0.0046556015
-0.053210407 -0.070435226 0.64870477 4286744442 -0.6336416 -0.42556581 0.64605856 0.0038105284
-0.060640693 -0.068915628 0.64165926 4286086513 -0.70843446 -0.41379982 0.57174265 0.0039466065
-0.067512959 -0.06727913 0.63462216 4285757804 -0.77298611 -0.39132649 0.49935478 0.0037490837
-0.072458565 -0.065520942 0.62826437 4285692011 -0.835724 -0.34627867 0.42621112 0.004801956
-0.030609697 -0.063230395 0.66972166 4285625705 -0.36250848 -0.40209678 0.84077674 0.005515696
-0.039868236 -0.063242659 0.66486895 4284572761 -0.48227924 -0.40520841 0.77666759 0.0070634885
-0.047806114 -0.062416878 0.65909779 4284375124 -0.55095863 -0.39016154 0.73771155 0.005353712
-0.055464089 -0.061398085 0.65304399 4284506709 -0.6586827 -0.3428601 0.66976374 0.0040297899
-0.062764466 -0.059758835 0.6458348 4285033311 -0.72467935 -0.32986683 0.60500175 0.0039382773
-0.069130957 -0.057671238 0.63813329 4284901727 -0.80765188 -0.30958074 0.50185388 0.0041464712
-0.072939038 -0.056428675 0.63161862 4285033824 -0.86066806 -0.26064008 0.4373976 0.0058320267
-0.032749057 -0.05486127 0.6721276 4284374865 -0.38733345 -0.30975866 0.86834455 0.0066459551
-0.040763527 -0.053631257 0.66768849 4284308817 -0.50301474 -0.28900057 0.81452733 0.0069204723
-0.048743576 -0.052826766 0.66189599 4284375121 -0.59809476 -0.27002263 0.75456613 0.0055698031
-0.056604296 -0.051945414 0.6560117 4284309332 -0.6769256 -0.24058065 0.69562352 0.0044542924
-0.063489914 -0.050200831 0.64857316 4284704348 -0.73735881 -0.20687614 0.6430425 0.0054814611
-0.069473326 -0.048719905 0.64151043 4284901725 -0.81918752 -0.19308919 0.54004389 0.0066919099
-0.073324084 -0.04965134 0.63544452 4284770398 -0.86528224 -0.19055644 0.46365297 0.0063334876
-0.036149621 -0.048637643 0.67196745 4283979596 -0.44381827 -0.23403999 0.86501473 0.0073773819
-0.042938679 -0.045746356 0.66830802 4284572242 -0.52446055 -0.18736792 0.83056253 0.0077051632
-0.048874289 -0.044903845 0.66373295 4284243020 -0.6100226 -0.15434918 0.77720553 0.0073271799
-0.057614177 -0.04296954 0.65774411 4284177227 -0.68914795 -0.11159047 0.71597636 0.0070003499
-0.063520253 -0.042174973 0.65211022 4284440142 -0.74268115 -0.10591869 0.66121507 0.0071588475
-0.068645567 -0.043011542 0.6450693 4283847486 -0.80408907 -0.11336777 0.58359897 0.0072055771
0.037845612 -0.039167833 0.75835764 4286865174 -0.2411274 -0.19616209 0.95046186 0.022390839
0.032221317 -0.040727019 0.75403959 4287528025 -0.17563382 -0.27038282 0.94659698 0.027676137
0.0270558 -0.042389311 0.74908346 4290161049 -0.12757742 -0.31883428 0.93918502 0.027630802
0.038490474 -0.033577431 0.76126534 4287001159 -0.20168701 -0.19915542 0.95898867 0.017068243
0.031982064 -0.033599235 0.75828618 4286087049 -0.071704328 -0.26859677 0.96058023 0.026995001
0.025634348 -0.030162789 0.75674576 4284376944 -0.018284798 -0.25035858 0.96798033 0.0244321
0.037930489 -0.026305839 0.7615664 4286279506 -0.21134585 -0.18317038 0.96009457 0.014367452
0.031496376 -0.024579585 0.75845504 4284310123 -0.07959798 -0.2409983 0.96725583 0.018206924
0.02292034 -0.02357671 0.75760102 4284639607 0.0010457933 -0.27216247 0.96225077 0.021632664
0.022462606 -0.015682966 0.75862575 4285099375 -0.001363337 -0.29121915 0.95665538 0.017970858
0.030992717 0.052982815 0.81942266 4284631060 0.14550038 -0.97102493 0.18957806 0.028815586
0.02409181 0.05260314 0.81411397 4287065390 0.12487142 -0.98994786 0.066407733 0.032258645
0.015985727 0.053697616 0.80776954 4287065647 0.1032676 -0.99418634 -0.030478202 0.026271844
0.0094779432 0.055008858 0.80097556 4286671148 0.080889314 -0.98900253 -0.12381556 0.023467755
0.0013225377 0.056261048 0.79521799 4285947169 0.0054752827 -0.97979999 -0.19990355 0.022363065
-0.0053809583 0.056683585 0.79044843 4284895255 -0.016614154 -0.97292656 -0.23051555 0.024325145
-0.015735626 0.061282918 0.77752566 4284893709 0.0098579228 -0.94769388 -0.31902778 0.0074774693
-0.019734412 0.062207699 0.77487922 4286341154 0.045764551 -0.94808352 -0.31471038 0.0013876793
-0.029598802 0.062077969 0.7692405 4287657523 0.058633313 -0.94522935 -0.3210969 0.0021352854
-0.038102895 0.062559426 0.76422846 4287723321 0.067919225 -0.94254285 -0.32710761 0.0023960029
-0.043750763 0.06521973 0.75873077 4287657786 0.071247786 -0.93654835 -0.34322077 0.0031115008
-0.052455962 0.066691637 0.75077748 4287525941 0.085842639 -0.93910426 -0.33273673 0.0033316757
-0.05881387 0.066980109 0.74897569 4287526199 0.072430983 -0.94049466 -0.33199874 0.0035443152
-0.07051295 0.068545982 0.73999548 4287593018 0.10585615 -0.93178421 -0.34723473 0.0037276805
-0.075830519 0.069937408 0.73390681 4287526713 0.11363307 -0.92789435 -0.35510418 0.0038964928
-0.084464252 0.072951391 0.72257525 4287066158 0.12026031 -0.92642617 -0.35675123 0.0036484275
-0.086491406 0.073346585 0.72093147 4287000113 0.12039785 -0.92634636 -0.3569122 0.0036780306
-0.10571653 0.075095698 0.70856154 4287330103 0.087510183 -0.96896625 -0.2311835 0.010593427
-0.1178081 0.075578719 0.70080221 4287856452 0.017801464 -0.97319359 -0.22929667 0.012951317
-0.12105238 0.079159886 0.69159716 4287394617 -0.029334068 -0.97961754 -0.19871791 0.023218252
-0.12523347 0.080012083 0.68783861 4287197746 -0.037905723 -0.9733628 -0.22611368 0.021328978
0.035781085 0.061937824 0.82745439 4281739279 0.15616089 -0.90971136 0.38475788 0.021013886
0.030401289 0.058109708 0.82566112 4282922258 0.15942949 -0.91606349 0.36798024 0.022400513
-0.040455937 0.064099327 0.76598859 4288051269 0.06853582 -0.94407517 -0.32252827 0.0022600947
-0.045536458 0.068087429 0.75703907 4287723321 0.080765888 -0.93910748 -0.33399612 0.0043511633
-0.05414176 0.067676529 0.75241756 4287526200 0.083603024 -0.94189191 -0.32534552 0.0034783967
-0.060977221 0.071008354 0.7446413 4287723062 0.089063942 -0.92732209 -0.36351186 0.0033705977
-0.070960015 0.070565134 0.73861104 4287789625 0.11443457 -0.92669028 -0.35797948 0.003430017
-0.076535016 0.071696281 0.73438925 4287592761 0.10756838 -0.93048531 -0.3501792 0.0038425825
-0.083590686 0.0744403 0.72615236 4287329589 0.12441279 -0.928105 -0.35091615 0.0038484645
-0.091031432 0.074854732 0.72068959 4287460920 0.10603809 -0.93696457 -0.33294582 0.0038479667
-0.099550307 0.077318877 0.71271366 4287461180 0.10396545 -0.9573741 -0.26949155 0.0095777065
-0.10660058 0.075594515 0.71006227 4287395386 0.077851564 -0.96967262 -0.23167601 0.010273347
-0.11338979 0.078959987 0.70164239 4287855939 0.04771696 -0.97614008 -0.21183297 0.017144911
-0.12270683 0.081215456 0.69401854 4287592768 -0.024313197 -0.97147423 -0.23589453 0.01844522
-0.1288752 0.08188504 0.68887722 4287329593 -0.053556353 -0.9716602 -0.23023407 0.024803247
-0.13687742 0.082402557 0.68290544 4287395387 -0.0079189688 -0.97248471 -0.23283149 0.022002058
-0.14430767 0.083175585 0.67841977 4287395644 0.0084083527 -0.96744519 -0.25293988 0.016374223
-0.15403968 0.085523665 0.66924739 4287132472 0.022484541 -0.96667254 -0.25502554 0.011210984
-0.16125223 0.085383013 0.66572917 4287066682 -0.019610688 -0.96566379 -0.25905281 0.0065882578
-0.16816658 0.088655457 0.65773737 4287198524 -0.19091137 -0.9470576 -0.25813609 0.032531358
-0.1755079 0.090255409 0.65100056 4286935357 -0.29925036 -0.91731632 -0.2626394 0.036590133
-0.18296392 0.093575418 0.64601868 4286409270 -0.46631241 -0.84716243 -0.25469184 0.033091165
-0.18724476 0.097238287 0.64124304 4285029169 -0.50014704 -0.83072656 -0.24442942 0.032068636
0.034364164 0.064536422 0.8306877 4279240469 0.16610304 -0.81272608 0.55846763 0.013121262
0.028496921 0.063861012 0.83000433 4280161801 0.15539761 -0.84200686 0.51660043 0.014618983
-0.18816736 0.10084376 0.64972126 4283581729 -0.54211301 -0.80063653 -0.25513512 0.027906833
-0.18913823 0.10309155 0.64423525 4283318813 -0.57380641 -0.78200877 -0.24332643 0.026894059
-0.19118463 0.10508108 0.65271896 4282856985 -0.62989122 -0.74468887 -0.2206243 0.023001848
-0.19154724 0.10741279 0.64686775 4282661139 -0.64969808 -0.72879392 -0.21622011 0.021030802
-0.022488326 -0.12055939 0.61432707 4289573799 -0.3163344 -0.90408218 0.28734556 0.0056714988
-0.028619349 -0.12040311 0.60956061 4289311398 -0.35252345 -0.90532279 0.23689134 0.0046677678
-0.03545022 -0.11905695 0.60344887 4289311139 -0.41570342 -0.88954735 0.18946108 0.0055165594
-0.042194754 -0.11720856 0.59786248 4289508264 -0.47853708 -0.86286867 0.16266336 0.0066374731
-0.0031374395 -0.11439511 0.63705587 4288390290 -0.10926281 -0.82038283 0.56127846 0.0035125776
-0.009296298 -0.11702864 0.63153338 4288324250 -0.16545181 -0.86545497 0.47287744 0.0051535685
-0.016420215 -0.11819068 0.6272645 4288521368 -0.2304275 -0.87963486 0.41610739 0.0068752128
-0.024782419 -0.11808415 0.6215626 4289179555 -0.32177928 -0.88178062 0.34484872 0.0067915646
-0.03284204 -0.11690357 0.61544454 4289311141 -0.40024686 -0.87289786 0.27901813 0.0059906463
-0.039922833 -0.11562502 0.60839403 4289245604 -0.45052791 -0.86179954 0.23307903 0.0067560547
-0.046600312 -0.11367213 0.60094965 4289179811 -0.51710379 -0.8408308 0.16002111 0.0063645025
-0.053447574 -0.11085524 0.59551585 4289048225 -0.59494275 -0.79234225 0.13504153 0.0084037269
-0.059031904 -0.10744698 0.59046918 4288718747 -0.68376797 -0.72660363 0.067140907 0.010499729
0.002024889 -0.10761972 0.64725065 4287796873 -0.063768342 -0.76181686 0.64464593 0.0047837049
-0.0035512745 -0.11017971 0.64255106 4288060559 -0.1076172 -0.79122329 0.60198355 0.0059381812
-0.011983752 -0.11156359 0.63825417 4288192149 -0.20657311 -0.81564099 0.54042292 0.0063345982
-0.020542413 -0.11343184 0.63361561 4288061075 -0.26105443 -0.8142485 0.5185073 0.0069054202
-0.028040558 -0.11478043 0.62710464 4288982177 -0.35316816 -0.83148199 0.42884684 0.0081949737
-0.037920922 -0.11255476 0.61932397 4288061076 -0.47540647 -0.80820757 0.34754699 0.0075706169
-0.044559807 -0.11060017 0.61444974 4287798157 -0.53971303 -0.77956063 0.31779653 0.0059285881
-0.052204132 -0.10758283 0.60881603 4287929229 -0.60779792 -0.74472898 0.27560794 0.00639456
-0.058715135 -0.10512765 0.60124755 4288126607 -0.68021882 -0.70712018 0.19308722 0.0094764214
-0.063790411 -0.10237914 0.59285611 4288521881 -0.74574876 -0.66185915 0.076161861 0.012729479
-0.067585766 -0.097282484 0.58883679 4288850845 -0.81086588 -0.58476764 0.023290277 0.01154195
0.0014670491 -0.1030141 0.65387654 4287468681 -0.077313274 -0.69891548 0.71101326 0.0078677982
-0.0069428384 -0.10457181 0.64972198 4288060819 -0.1781339 -0.70651758 0.68490934 0.0069426964
-0.013964683 -0.10609098 0.64621872 4288455061 -0.239416 -0.7229898 0.64804745 0.0068615642
-0.057040542 -0.10104714 0.60982752 4288126867 -0.6727742 -0.66468829 0.32490551 0.0063207974
-0.062682807 -0.098476335 0.60614133 4287798157 -0.74367929 -0.62250197 0.24378604 0.008786086
-0.06841135 -0.095608845 0.59944147 4287337606 -0.80429924 -0.56427717 0.18626133 0.0080588143
-0.070820332 -0.092006661 0.59177846 4286153336 -0.84850478 -0.52472854 0.068547726 0.010322668
0.005733043 -0.0949075 0.66206008 4286875773 -0.019327939 -0.60124922 0.79882777 0.013475048
-0.0010833144 -0.096364588 0.65954143 4286481529 -0.1259228 -0.62480426 0.77056015 0.0092804497
-0.01063776 -0.09678755 0.65554202 4285297000 -0.23904431 -0.60944968 0.75592923 0.0064263898
-0.015677571 -0.095764719 0.65367335 4285032543 -0.28086555 -0.6051932 0.74488616 0.0062328149
-0.066913813 -0.089343593 0.60937196 4286020975 -0.80355239 -0.52698511 0.27674788 0.0073331101
-0.07078281 -0.087117068 0.60419649 4285823596 -0.85367626 -0.47379637 0.21622446 0.0060653882
-0.07387051 -0.083580248 0.5962519 4286218096 -0.90216839 -0.41619357 0.1134651 0.0072538839
0.0038149953 -0.087283209 0.66709775 4285756779 -0.029242337 -0.5235129 0.85151577 0.015234476
-0.0033720732 -0.087625481 0.66389406 4285757293 -0.18781167 -0.53243423 0.82537299 0.0059960312
-0.012227207 -0.087698922 0.65950435 4285625703 -0.26109937 -0.54317689 0.79798865 0.003651106
-0.018706352 -0.087652281 0.65702534 4285559650 -0.33798072 -0.52515692 0.78101158 0.0015552954
-0.069355398 -0.081891865 0.61277831 4286613886 -0.8301636 -0.46856791 0.30211192 0.0069498438
-0.07364729 -0.078781202 0.60903049 4286415736 -0.88160235 -0.40974474 0.23427743 0.005555464
-0.076915979 -0.075108506 0.6001122 4286218612 -0.92935771 -0.34923661 0.11969608 0.0048674769
0.0011884272 -0.078999057 0.67110729 4284309847 -0.068718284 -0.44017631 0.89527792 0.016472336
-0.0061820745 -0.079212837 0.66875648 4285691758 -0.19564125 -0.47224587 0.85948133 0.0059746015
-0.014900565 -0.079144455 0.66392577 4285889133 -0.27540538 -0.47962111 0.83313578 0.0034341738
-0.021261513 -0.078971565 0.66127115 4285362276 -0.33724394 -0.49954093 0.79795069 0.0015399837
-0.072586924 -0.070207931 0.61869311 4285889136 -0.87516105 -0.35739762 0.3261275 0.0053372616
-0.076032072 -0.070014969 0.61349952 4285757804 -0.89664829 -0.35754874 0.26111296 0.0047751698
-0.079067349 -0.066735514 0.60467052 4285560426 -0.9496541 -0.28491995 0.1302948 0.0064860177
-0.0014042854 -0.070272326 0.67519271 4284506712 -0.060580641 -0.35220426 0.93396044 0.01774594
-0.0083267093 -0.070390239 0.67297345 4285428068 -0.16269818 -0.40395996 0.90019202 0.010068662
-0.017013133 -0.070505336 0.66840041 4286086512 -0.26978523 -0.4452894 0.85377592 0.0043894486
-0.023180962 -0.071750902 0.66500127 4286020719 -0.33253223 -0.47397202 0.81533587 0.0020860757
-0.074177057 -0.062674507 0.62288177 4285428840 -0.88975847 -0.29217497 0.35066044 0.0054856706
-0.077756494 -0.060717158 0.61705261 4285165667 -0.91362715 -0.27551606 0.29895779 0.003642851
-0.080681324 -0.058246776 0.60900331 4285165156 -0.96232688 -0.22186482 0.15716827 0.0072292583
-0.0030494928 -0.06294398 0.67709452 4284572248 -0.055445164 -0.2894904 0.95557374 0.01382865
-0.010097414 -0.061316215 0.6767689 4284440660 -0.11680365 -0.29689586 0.9477393 0.012692723
-0.019740731 -0.061994486 0.67286336 4285559394 -0.26752585 -0.36850142 0.89030135 0.007676899
-0.024272144 -0.064219095 0.66976792 4286152051 -0.31398726 -0.40590662 0.85828424 0.0056021865
-0.075370729 -0.053604379 0.62776947 4285099363 -0.89542127 -0.21464851 0.39005888 0.0041874838
-0.079153031 -0.05135398 0.62038553 4285034084 -0.93799222 -0.1859985 0.29253039 0.0062816073
-0.081875533 -0.05003329 0.61321127 4284968034 -0.96820766 -0.15703619 0.1947116 0.0083988076
-0.012476891 -0.052499317 0.67931867 4284111695 -0.094349116 -0.25988472 0.96101928 0.012207665
-0.02119863 -0.052589662 0.6766479 4284243534 -0.23907819 -0.26378101 0.9344843 0.0092139505
-0.029173791 -0.051890966 0.67448825 4283782725 -0.35408169 -0.27388182 0.89421171 0.0061221751
-0.071941614 -0.044678453 0.63902569 4284639068 -0.84341252 -0.1424983 0.51802403 0.0064304695
-0.075805783 -0.044690069 0.63219118 4284573016 -0.8958261 -0.13872428 0.42219692 0.0051583056
-0.080210119 -0.041829422 0.62343621 4284506969 -0.95304757 -0.073580712 0.29374373 0.0081128655
-0.014403313 -0.045088314 0.68009168 4284309077 -0.10640582 -0.21582459 0.97061712 0.01288626
-0.022125214 -0.042555995 0.6781283 4284572251 -0.23324618 -0.19180287 0.95331413 0.011181772
-0.032310247 -0.043900654 0.67526197 4284309077 -0.41311941 -0.19687295 0.8891418 0.0063716127
-0.040219396 -0.042395383 0.67075682 4284506454 -0.49689615 -0.14853428 0.85500389 0.0075973365
-0.049459964 -0.039588917 0.6645692 4284703834 -0.62282068 -0.078556202 0.77841038 0.0057790098
-0.055425733 -0.038342126 0.65979683 4284507226 -0.66593045 -0.075136885 0.74221992 0.0060136854
-0.065408885 -0.03766961 0.65050125 4284374609 -0.76732934 -0.06141635 0.63830483 0.0069115409
-0.070601076 -0.037621971 0.64350593 4284374864 -0.82447577 -0.05185939 0.56351554 0.0068211895
-0.075963497 -0.035123955 0.63533235 4284309075 -0.89799416 0.013320405 0.43980479 0.0084604332
-0.079634696 -0.034058578 0.62749904 4284243542 -0.94206023 0.007580962 0.33535653 0.0090436125
-0.025542557 -0.034450334 0.67932391 4284901218 -0.31856751 -0.13461053 0.9382934 0.011469546
-0.032403827 -0.033247642 0.67713237 4284440407 -0.45332342 -0.068205252 0.88873261 0.0060774633
-0.0409756 -0.033116605 0.67200899 4284045386 -0.53899682 -0.037120581 0.8414892 0.0061289873
-0.04946816 -0.032451235 0.66665602 4284045643 -0.60608917 -0.016125593 0.79523295 0.005415475
-0.057002425 -0.031436387 0.66013527 4283914057 -0.68055332 0.014122141 0.73256201 0.0045946068
-0.063511699 -0.029121354 0.65257859 4283584835 -0.75029111 0.03793174 0.66001815 0.0051477291
-0.069508195 -0.028027866 0.6447165 4283585093 -0.82673979 0.071962468 0.55796236 0.0056810644
-0.074474275 -0.027479824 0.63763654 4283650631 -0.88366961 0.062445454 0.46392655 0.0073575326
-0.032922238 -0.02663536 0.67686307 4284044619 -0.47044069 -0.012853254 0.88233793 0.0066652214
-0.040480226 -0.025956981 0.67177987 4283913284 -0.54680449 -0.0042764116 0.83724928 0.0047355946
-0.048021138 -0.024291202 0.66612256 4283716159 -0.61606848 0.039524231 0.78670007 0.003452027
-0.054375648 -0.023085918 0.65982866 4283649858 -0.67893183 0.068378463 0.7310099 0.0040850793
-0.060863078 -0.022307079 0.65345591 4283650884 -0.74171031 0.090898477 0.66453207 0.0046126572
0.040519357 -0.019465923 0.76161855 4285752131 -0.19507775 -0.19435863 0.96133727 0.011249472
0.034602821 -0.019307423 0.75919038 4284639603 -0.11219585 -0.23824134 0.96470368 0.016699135
0.041653335 -0.010285415 0.7631734 4283388244 -0.22706407 -0.18057904 0.95699167 0.0098030595
0.034758568 -0.011025891 0.7593835 4284968052 -0.2019026 -0.1755148 0.96355051 0.0084968619
0.026860416 -0.01265322 0.75874335 4284573287 -0.02577287 -0.25410414 0.96683341 0.01461307
0.041016847 -0.0048174076 0.76479572 4286481809 -0.26944545 -0.19243495 0.94359314 0.010333942
0.037267745 -0.0041772611 0.76100522 4285955462 -0.24574545 -0.16962206 0.95437807 0.010234013
0.030642122 0.012424327 0.76745385 4288847267 -0.29340336 -0.31442338 0.90280235 0.0074082478
0.015172154 0.029941604 0.76827151 4286943898 -0.28331971 -0.5359956 0.79525995 0.027547101
0.011973381 0.029890202 0.76752746 4289836735 -0.28359002 -0.53612173 0.79507864 0.027572107
0.013131499 0.034874544 0.77296728 4287337888 -0.10003492 -0.45360848 0.88556898 0.017427493
0.0095047653 0.033920594 0.77021688 4287732896 -0.033159912 -0.42894226 0.90272313 0.015725167
0.012285888 0.042762823 0.77887869 4284108864 0.12052301 -0.57423323 0.80977184 0.081261128
0.0090583861 0.047914959 0.7824226 4282328576 0.011210501 -0.75548398 0.65507114 0.15095702
-0.11469823 0.07554251 0.67963231 4291352035 -0.16286586 -0.9856407 -0.044572487 0.031953841
0.044822752 0.055508204 0.81865162 4283711771 0.10276131 -0.98001301 0.1703351 0.031027747
0.03760317 0.053266935 0.81441408 4286144808 0.10155887 -0.98635304 0.12958914 0.034654249
0.029635429 0.053553812 0.80754226 4286737201 0.098717831 -0.99509448 0.0064256862 0.033514388
0.022794217 0.055285186 0.80035323 4286407721 0.10809456 -0.98367697 -0.14385661 0.023264809
0.015690684 0.057367042 0.79358298 4285421347 0.10383408 -0.97602677 -0.19128424 0.028119639
0.0072000623 0.058308996 0.78798234 4284368911 0.045849428 -0.98802435 -0.1473265 0.071586221
-0.00080651045 0.058414593 0.78390241 4283512582 -0.09875077 -0.96577418 -0.2398501 0.08639437
-0.012954384 0.061596185 0.77541387 4284170500 0.0088522434 -0.94584012 -0.32451162 0.0075496435
-0.016721249 0.062475294 0.7695694 4286209566 0.043793052 -0.94463831 -0.32517719 0.0013936373
-0.022295535 0.064149752 0.76293027 4287591988 0.047926679 -0.93958682 -0.33893847 0.0023860466
-0.038379043 0.068766013 0.74964362 4287329074 0.066020444 -0.93121803 -0.35843235 0.0034821797
-0.044837534 0.06841515 0.74923241 4287394870 0.089406773 -0.93339467 -0.34753489 0.0032797731
-0.055973291 0.070127904 0.7428652 4287658294 0.10111219 -0.92420542 -0.36826649 0.0033942081
-0.063962847 0.07305856 0.73159176 4287131180 0.11817175 -0.92259163 -0.3672325 0.0032646938
-0.067532182 0.075841099 0.72531861 4286934312 0.1361233 -0.92084146 -0.36540529 0.004165398
-0.074491799 0.077007294 0.71841311 4286605092 0.13311742 -0.91589636 -0.37869915 0.0043276739
-0.087715775 0.075503662 0.71320158 4286736680 0.12709917 -0.94433755 -0.3034333 0.0088706352
-0.092889875 0.077418208 0.7081995 4286670886 0.11092069 -0.97009337 -0.2159052 0.017928677
-0.098507166 0.080098704 0.69914943 4286342178 0.069652297 -0.98351717 -0.166859 0.029861445
-0.11087197 0.080520511 0.69411576 4287263543 0.00058786571 -0.99089259 -0.1346513 0.027688565
-0.11262438 0.078927249 0.68551457 4288979342 -0.12701055 -0.9887042 -0.079573549 0.03308104
-0.12719852 0.080996007 0.68293834 4286999856 -0.092348039 -0.98019165 -0.17520152 0.032107282
-0.13256013 0.082197487 0.67825788 4287197744 -0.064207882 -0.97928166 -0.19205245 0.039346881
-0.13697821 0.087191761 0.66702366 4287000105 -0.15164265 -0.98604882 -0.06864275 0.073856555
-0.14341515 0.087922007 0.66192716 4286934317 -0.13683988 -0.98595786 -0.09571524 0.078062743
-0.15082541 0.090700358 0.65342772 4286736939 -0.072948381 -0.97072685 -0.22883916 0.068786614
-0.15965334 0.091608882 0.64611828 4286737455 -0.11292143 -0.95690477 -0.26754716 0.035587002
-0.16643098 0.092193276 0.64203084 4286868788 -0.14342484 -0.95415074 -0.26272646 0.023878632
-0.17224418 0.092514902 0.6389994 4286934836 -0.25194663 -0.92505717 -0.28423849 0.03232431
0.049399555 0.065763831 0.82667285 4278190081 0.17028779 -0.87952244 0.44434458 0.018608892
0.042948723 0.061946303 0.8252601 4281805846 0.16885377 -0.91545886 0.36527145 0.021463154
0.037238777 0.056646153 0.82222968 4283383323 0.15112695 -0.96054214 0.23349336 0.029261481
-0.044957072 0.069897041 0.75343674 4287724091 0.086348876 -0.93727303 -0.3377316 0.0035304106
-0.056360424 0.071550071 0.7437498 4287657783 0.10117184 -0.924182 -0.3683089 0.0034014836
-0.066473395 0.07300055 0.73488247 4287526965 0.12180923 -0.9227224 -0.36571223 0.0033840267
-0.070329487 0.077370375 0.72597867 4287197488 0.12748861 -0.92599159 -0.35536695 0.0037773678
-0.075570375 0.078735054 0.7206682 4287066159 0.13401644 -0.91896999 -0.37085485 0.0038722456
-0.087902844 0.076708496 0.71601832 4287329076 0.12231724 -0.94318938 -0.30892032 0.0073742778
-0.095551431 0.078567803 0.71059 4287264310 0.11380897 -0.96814632 -0.22302403 0.016202288
-0.10151649 0.081335515 0.70182484 4287395387 0.059781551 -0.98329556 -0.1719175 0.02619298
-0.11010987 0.080356762 0.69837284 4287790661 0.043092728 -0.98305297 -0.17818412 0.02302279
-0.11650693 0.081951439 0.69300282 4287724098 -0.014580056 -0.97985101 -0.1991964 0.02075831
-0.12728959 0.082384169 0.68392283 4287065904 -0.080222242 -0.97739965 -0.19558573 0.029794903
-0.13547376 0.083958879 0.67727023 4287329078 -0.033406392 -0.97447342 -0.22200225 0.032695901
-0.14064205 0.087217748 0.67028719 4287198005 -0.051495031 -0.98341477 -0.17390537 0.054616235
-0.14732543 0.088110358 0.66475749 4287131701 -0.10407408 -0.98397642 -0.14477006 0.060229804
-0.1547876 0.090095118 0.6573419 4286869041 -0.083610691 -0.97953272 -0.18309689 0.053979848
-0.16133747 0.091733709 0.65073884 4286935093 -0.12751541 -0.9617328 -0.2425063 0.033852749
-0.17006186 0.091501251 0.64593744 4286803508 -0.19926688 -0.93636256 -0.28899369 0.034553085
-0.17835897 0.093518347 0.63909376 4287001145 -0.4024958 -0.87352461 -0.27377221 0.033901308
-0.18399608 0.098352194 0.63236225 4286146356 -0.43341845 -0.86862385 -0.24008438 0.032569997
0.040586233 0.065953597 0.83025324 4280951602 0.18592511 -0.83955145 0.5104754 0.012522255
-0.18904382 0.10648263 0.63698447 4283187487 -0.56920618 -0.7860589 -0.24107024 0.023876235
-0.19121969 0.11110836 0.63326043 4282595611 -0.6951766 -0.67698222 -0.24171004 0.016023809
-0.1913636 0.11031468 0.64110875 4282529814 -0.66545421 -0.71398741 -0.21769643 0.0214005
-0.0002271235 -0.1294207 0.61521101 4289639329 -0.16446875 -0.92989212 0.32901433 0.011793436
-0.0037217736 -0.12814704 0.6120888 4289508005 -0.17572023 -0.93132842 0.31898183 0.011285528
-0.01198405 -0.12502557 0.60565704 4289640102 -0.25261885 -0.93864274 0.23480463 0.005753174
-0.020265043 -0.12406188 0.59873736 4289771693 -0.30810922 -0.93805468 0.15849781 0.0028413963
-0.027281672 -0.12298962 0.59199697 4289969072 -0.3290838 -0.93910891 0.09888427 0.0032451192
-0.034754992 -0.12158108 0.58670777 4289838000 -0.41028893 -0.91084188 0.045053229 0.0072882199
-0.039478093 -0.11970101 0.5821445 4289837225 -0.45123565 -0.89240426 0.00052314997 0.0099554211
0.0061205029 -0.12101889 0.6267522 4288587419 -0.071902931 -0.87414056 0.48032078 0.0070562945
-0.00097769499 -0.12300372 0.62249398 4288916126 -0.14372569 -0.89531171 0.42161518 0.0081275534
-0.0088272393 -0.12347078 0.61715734 4289179297 -0.18535677 -0.91502512 0.35828984 0.0086355899
-0.016875356 -0.12279521 0.61125445 4289376933 -0.27104574 -0.92180467 0.27714634 0.0053260378
-0.024000168 -0.12234503 0.60376847 4289442727 -0.32306769 -0.92602402 0.19520813 0.0030402236
-0.031836838 -0.12076184 0.59732163 4289442726 -0.37689438 -0.91237402 0.15976186 0.0041549006
-0.038828135 -0.11862567 0.5911653 4289311142 -0.45676148 -0.88359183 0.10312001 0.0062372321
-0.045946121 -0.11567478 0.58510506 4289310883 -0.52933896 -0.84756815 0.037786841 0.0079459073
-0.050862819 -0.11232024 0.5802319 4289245601 -0.57817888 -0.81277382 -0.071463764 0.011636927
0.011942714 -0.1155524 0.63872433 4288389526 0.045879111 -0.83073294 0.55477715 0.0053635431
0.0038819909 -0.11666807 0.6342119 4288455319 -0.047207683 -0.84006405 0.54042906 0.0020562019
-0.0037389398 -0.1185234 0.62960827 4288323733 -0.12928438 -0.86593121 0.48316488 0.004537385
-0.011202812 -0.12068492 0.62285757 4288652179 -0.20466027 -0.90102315 0.3824538 0.0071192975
