# .PCD v0.7 - Point Cloud Data file format
VERSION 0.7
FIELDS x y z rgb
SIZE 4 4 4 4
TYPE F F F U
COUNT 1 1 1 1
WIDTH 1053
HEIGHT 1
VIEWPOINT 0 0 0 1 0 0 0
POINTS 1053
DATA ascii
-0.0051871953 -0.094039172 0.52457303 4290034609
0.0046081175 -0.094306387 0.52452105 4290034868
0.015167446 -0.093289241 0.52649182 4289903535
0.024900679 -0.091996692 0.52833331 4289837488
0.030887719 -0.090804815 0.52950001 4289706151
-0.042898674 -0.082134537 0.52877778 4288784545
-0.034592886 -0.084022433 0.52456164 4288718752
-0.026636152 -0.086687349 0.52236837 4289113251
-0.016194353 -0.088844024 0.52006245 4289639596
-0.0031929819 -0.089517541 0.51999998 4289968815
0.002736842 -0.089859642 0.51999998 4289968559
0.01632878 -0.087854519 0.5210278 4289640110
0.025356881 -0.085507475 0.52367067 4289377190
0.034433171 -0.084950507 0.52791554 4289508776
0.041212767 -0.081962481 0.52788889 4289179557
-0.052342352 -0.072075777 0.52847618 4287863697
-0.044946656 -0.074906476 0.52501076 4288126612
-0.037124511 -0.077228524 0.52110529 4288718495
0.028508294 -0.079050876 0.52036357 4289245349
0.035967492 -0.07611236 0.52255827 4289048226
0.044070344 -0.074239269 0.52675647 4288916384
0.050675437 -0.070201755 0.52999997 4288521630
-0.060903501 -0.060903501 0.52999997 4287073670
-0.054550026 -0.064662106 0.52643484 4287402376
-0.04745261 -0.065949135 0.52165109 4287337614
0.038804386 -0.06932544 0.52042854 4288784542
0.045715824 -0.065511718 0.52251953 4288324247
0.05228493 -0.063916869 0.52788365 4288389782
-0.061340224 -0.053964596 0.52894998 4286152568
-0.05570529 -0.055441912 0.52376938 4286415741
-0.049491227 -0.059070174 0.51999998 4286810494
0.04849419 -0.055959899 0.52068967 4287731855
0.054673411 -0.055122141 0.52622563 4287337610
-0.062320828 -0.044693712 0.52764004 4284046681
-0.057156391 -0.045545116 0.5223726 4284901985
0.049263161 -0.045157894 0.51999998 4287336581
0.054803271 -0.044894036 0.52508795 4285363822
0.063168421 -0.041801751 0.52950001 4283652422
-0.062579073 -0.034722216 0.52728593 4284375906
-0.057875175 -0.034864128 0.52127033 4284705124
0.049415201 -0.030865496 0.51999998 4285561207
0.055932399 -0.034385167 0.52707672 4285231984
-0.061759315 -0.02609106 0.52780646 4284046683
-0.057094686 -0.024991412 0.5219655 4284243549
0.048013732 -0.024571722 0.5207631 4285428593
0.053594016 -0.02536108 0.52547443 4284770661
-0.061737634 -0.016133906 0.52952164 4284112219
-0.056229081 -0.014882658 0.52372289 4284178270
0.047150854 -0.014902554 0.52291065 4284310624
0.051816177 -0.015452896 0.52727896 4284244063
-0.061297037 -0.0052875932 0.52957135 4284704611
-0.055594474 -0.0050534462 0.52367663 4284968041
0.046512112 -0.004745244 0.52518421 4285625971
0.051572673 -0.0054246518 0.52900004 4285560691
-0.061199833 0.0027452947 0.52963638 4283849043
-0.055145599 0.0051965066 0.52555537 4283322186
-0.046643518 0.0077192015 0.52100003 4283651153
-0.038315788 0.0091228066 0.51999998 4283520079
0.038614266 0.0077247927 0.52110529 4283915353
0.043796081 0.0053745625 0.52285904 4284178265
0.050197367 0.00046052629 0.52499998 4284705122
-0.052095588 0.013318806 0.52773535 4283585360
-0.044845536 0.015317963 0.52468115 4283255874
-0.035065521 0.015427519 0.52335131 4283190081
-0.025247144 0.015939202 0.52454102 4282992704
-0.015511215 0.016551234 0.52336043 4283453514
-0.0049600946 0.017347425 0.5218209 4283915095
0.0047809365 0.016997147 0.52240002 4283124805
0.012438451 0.018635234 0.52094448 4282992188
0.029649122 0.019157894 0.51999998 4283125828
0.036298383 0.015919883 0.5224728 4283848786
0.043308683 0.012803691 0.52610517 4284243285
-0.043270145 0.022083115 0.52917856 4283452997
-0.03527103 0.022161821 0.52907497 4283122996
-0.023599315 0.024522545 0.52877766 4284177492
-0.015158956 0.02524543 0.52336335 4284704867
-0.00503489 0.025208516 0.52248716 4284770405
0.0050174412 0.025068492 0.52720535 4284178011
0.015209648 0.024907876 0.52558184 4283585357
0.025113475 0.025279483 0.52519363 4282861114
0.034516923 0.024799425 0.52756369 4283255618
-0.023895821 0.03469434 0.52788913 4284506715
-0.015104116 0.03522506 0.5215205 4284572767
-0.0050703059 0.035228651 0.5221498 4285362542
0.0050796261 0.034700107 0.52805156 4284902248
0.014922448 0.032327279 0.529661 4284177755
0.02324035 0.031451363 0.52943993 4283651407
0.034071427 0.030484961 0.52999997 4283914832
-0.030219296 0.047885966 0.52999997 4284176982
-0.024299353 0.045490537 0.52742702 4284704607
-0.015212776 0.045179069 0.52133876 4284968039
-0.0049815774 0.045025136 0.52197373 4285757558
0.00416413 0.045449458 0.52789348 4286020985
0.010692982 0.049280696 0.52999997 4286087553
-0.023237184 0.052864317 0.52467364 4283453506
-0.015132914 0.055117123 0.5206449 4283453508
-0.0050024991 0.0545615 0.52091318 4284440916
0.004735643 0.05201279 0.52683663 4285494381
0.011147806 0.051092103 0.52950001 4285297513
-0.011938848 0.060993988 0.52057141 4281281317
-0.0086666662 0.061122805 0.51999998 4281147662
-0.11370952 0.12937494 0.52971429 4286866465
-0.072061397 0.12971053 0.52999997 4287197236
-0.13294061 0.13597412 0.52716964 4283513353
-0.12547213 0.13380004 0.52477878 4285355037
-0.11458164 0.13263817 0.52531326 4286604322
-0.10532057 0.13275719 0.52517134 4286734881
-0.094972163 0.13287698 0.52511495 4286801446
-0.085391469 0.13347478 0.52497107 4287130410
-0.074634217 0.13336307 0.52544731 4287130667
-0.06509307 0.13412 0.52634734 4287130923
-0.055188149 0.13423526 0.52537501 4286933799
-0.045163743 0.13512278 0.52420557 4287130922
-0.034393556 0.13477944 0.52537668 4286868007
-0.025024092 0.1355502 0.52526587 4286539557
-0.0151692 0.13566065 0.52577311 4286275872
-0.005086876 0.13635902 0.52415192 4286210335
0.0049052248 0.13628809 0.52463746 4286144545
0.01527643 0.13659334 0.52463764 4286210080
0.024943151 0.13675259 0.52448386 4286276645
0.035139535 0.13700484 0.52480537 4286407974
0.045147751 0.13711169 0.52697343 4286473256
0.055170797 0.13759762 0.52498692 4286803506
0.0644705 0.13676511 0.52583146 4286934837
0.075194135 0.1377933 0.52514279 4287132731
0.084811583 0.13808151 0.52683681 4287264318
0.094744235 0.13861777 0.52534884 4287264320
0.10585096 0.13851143 0.52838451 4287396167
0.11467887 0.13870925 0.52578437 4287396163
0.12387777 0.13868214 0.52953124 4287264838
-0.14086841 0.14830701 0.52999997 4279636503
-0.13502072 0.14524314 0.52642733 4281672708
-0.12835154 0.14434952 0.52114707 4282329856
-0.00045701757 0.14030439 0.52100003 4286802471
0.00091271929 0.14016974 0.5205 4286736942
0.049037278 0.14024781 0.52249998 4286605606
0.056770619 0.14047413 0.5205 4286935347
0.064914875 0.14086559 0.52054173 4287066677
0.073398963 0.14078711 0.52131248 4287066937
0.085816115 0.14089274 0.52271438 4287264576
0.094832413 0.14098953 0.52179319 4287264321
0.10590179 0.14099443 0.52478379 4287330627
0.1156508 0.14159158 0.5209319 4287264834
0.12487307 0.14455515 0.52475691 4285686581
0.13133736 0.14645965 0.52905881 4284042798
-0.13240208 0.15077072 0.52362502 4279438086
-0.12887895 0.15081578 0.52100003 4280818690
0.11996491 0.15508771 0.51999998 4283318816
0.12508947 0.15418242 0.52195698 4283253533
0.13287391 0.15464726 0.52963316 4283055898
0.12361404 0.16010526 0.51999998 4282464283
-0.021663012 -0.10156009 0.53683335 4289771441
-0.013881507 -0.10181659 0.53508341 4290034612
-0.0056829541 -0.1025449 0.53588635 4290100661
0.0055587483 -0.10205939 0.5351944 4290166710
0.013815311 -0.1019524 0.53627276 4290166454
0.024113158 -0.10070789 0.53899997 4290100916
-0.041101251 -0.091584705 0.53857142 4289047713
-0.034077723 -0.093751326 0.53463799 4289244839
-0.025546381 -0.098190166 0.5319677 4289640366
-0.015565789 -0.099307023 0.53233337 4289837743
-0.0052853073 -0.099213369 0.53141671 4289969074
0.0068818121 -0.099014558 0.53260005 4290100918
0.015237034 -0.098356269 0.5323438 4290166453
0.0247938 -0.09692277 0.5350222 4290100660
0.033269409 -0.092655465 0.53356528 4289837486
-0.052481323 -0.081173554 0.53757143 4287863698
-0.045169141 -0.085501887 0.53428894 4288784801
-0.037515383 -0.088566974 0.53233337 4289244323
0.037447661 -0.088485084 0.53566664 4289903018
0.045415018 -0.084825657 0.53659993 4289376935
0.051499084 -0.082788259 0.53705263 4288982436
-0.060998246 -0.071376026 0.53766668 4287732368
-0.055241 -0.075418241 0.53485441 4287863444
-0.049420174 -0.078792982 0.53149998 4288061338
0.047552705 -0.077339761 0.53191662 4288916132
0.053330995 -0.073823616 0.53410202 4288653215
0.060046487 -0.070921049 0.53899997 4288455844
-0.062889636 -0.063766778 0.53434217 4286218352
-0.058492403 -0.068439566 0.53155559 4287796879
0.057009131 -0.065945819 0.53370911 4288192660
0.061728433 -0.063615717 0.53683323 4287468937
-0.065336116 -0.055302855 0.5337289 4284047438
0.059177548 -0.054517198 0.53120005 4286942855
0.062100604 -0.055439893 0.53575009 4286745473
-0.066660285 -0.044885851 0.5338788 4284310112
0.059350222 -0.048601098 0.53275001 4286482044
0.061586592 -0.045217935 0.53322232 4285231462
-0.070219524 -0.032047149 0.53724998 4284178010
-0.067611679 -0.035072789 0.53522503 4284178528
0.062785491 -0.035149973 0.53436667 4285231729
-0.065676615 -0.024778357 0.53344905 4284046428
0.058260467 -0.023404095 0.53593343 4284375649
0.062308017 -0.02749116 0.53684616 4284573537
-0.063014135 -0.013844251 0.53211123 4284112219
0.057075445 -0.017695239 0.53685713 4283981146
0.060046487 -0.017966665 0.53899997 4284046938
-0.062915131 -0.0065559209 0.53324997 4284573283
0.053785618 -0.0048988936 0.53317392 4285495412
-0.060143419 0.0083925445 0.53149998 4283454545
0.048660137 0.0046593053 0.53317392 4284046678
0.052341979 0.0055307657 0.53329629 4284375389
-0.060046487 0.010874561 0.53899997 4283782485
-0.056075152 0.015862709 0.53436369 4284243803
0.039629385 0.017717106 0.53149998 4284111953
0.046104074 0.016541382 0.53389299 4283980367
0.050956354 0.014024781 0.53725004 4284309082
-0.052926771 0.023715945 0.53650892 4284112472
-0.045591988 0.026428752 0.53458905 4283585356
-0.03480548 0.026924836 0.533086 4283452738
-0.027490951 0.026190117 0.53163153 4283848274
0.03884482 0.027979108 0.53236365 4284375641
0.04500591 0.024811184 0.53526831 4284968038
0.051283043 0.022652632 0.53800005 4285757558
-0.050590347 0.030732457 0.53899997 4284111698
-0.043691184 0.034259479 0.53834844 4284046164
-0.034898657 0.034853183 0.53486472 4284243286
-0.028595015 0.035259239 0.53189278 4284374870
0.0088616954 0.039641812 0.5316667 4284703843
0.015278273 0.03755144 0.53301835 4284571997
0.025355021 0.036130391 0.53290242 4284177494
0.034922365 0.035182193 0.53352809 4284177493
0.043733981 0.034550264 0.5370276 4284374873
-0.040188596 0.040188596 0.53899997 4283914323
-0.033540495 0.04251403 0.5372631 4283913808
-0.028202256 0.042713113 0.53285718 4283848274
0.0084179342 0.04339974 0.53199995 4285428850
0.015063824 0.045013629 0.53497982 4284770145
0.024901528 0.045151625 0.53655022 4284242770
0.033569772 0.043120839 0.53726661 4284045906
0.040661402 0.040188596 0.53899997 4284374356
-0.024303511 0.058933962 0.53871429 4284573793
-0.0014082707 0.058945365 0.53514284 4282729775
0.0054565556 0.057451222 0.53516388 4282597683
0.014148643 0.053683028 0.53812116 4284704094
0.021433918 0.050905552 0.53899997 4284242519
-0.023188766 0.06464915 0.53817397 4284506453
-0.015487081 0.06588617 0.53615576 4284309590
-0.0046724649 0.065668069 0.53419071 4283453253
0.0048763254 0.06478899 0.53654772 4284638042
0.010854386 0.060878947 0.53799999 4285626476
-0.023108441 0.07109835 0.53899997 4282923806
-0.01493093 0.071146898 0.53667742 4283451694
-0.0044668103 0.072558463 0.53448987 4282531113
0.0030780402 0.071868047 0.53643334 4283321143
-0.13295528 0.12937987 0.53635001 4286605098
-0.12570044 0.12951012 0.53524244 4286867242
-0.11476252 0.12959042 0.53563637 4286867491
-0.1049265 0.12898229 0.5351876 4286932775
-0.095078349 0.12917045 0.5365454 4287195691
-0.084837094 0.12919742 0.53667998 4287130922
-0.077053659 0.12956156 0.53450006 4287131178
-0.062063508 0.12986666 0.53680003 4287129898
-0.059131578 0.12999561 0.53500003 4287065641
-0.14237189 0.13527919 0.53604448 4282986766
-0.13677235 0.13333127 0.53287274 4284170768
-0.12376 0.1302979 0.53240001 4286801445
-0.11562225 0.1304488 0.53687501 4286866977
-0.10462123 0.13066833 0.53220004 4286931231
-0.094513208 0.13067238 0.53372228 4287194920
-0.084926963 0.13128874 0.53408116 4287195948
-0.077106632 0.1310387 0.53367853 4287065386
-0.065145262 0.13066079 0.53518176 4286999597
-0.054487884 0.13149159 0.53468186 4286933800
-0.045348421 0.13245828 0.53462505 4286670628
-0.034976728 0.13230182 0.53220004 4286012695
-0.025598707 0.13292658 0.53447068 4285420564
-0.017102748 0.13208896 0.53259999 4284960264
-0.0048301429 0.1337394 0.53607267 4285092114
0.0056781718 0.13394429 0.53665388 4285157646
0.015154252 0.13383453 0.5325641 4285552148
0.024756623 0.13426176 0.53458929 4285815321
0.036188595 0.1354031 0.53659999 4286078751
0.044040445 0.13432543 0.53597778 4286144548
0.054976247 0.13530812 0.53441191 4286671663
0.068182833 0.13536355 0.53185713 4286671924
0.07419993 0.13600035 0.53463894 4287066937
0.086093783 0.13674757 0.53662163 4287132219
0.095015921 0.13633944 0.53552163 4287264576
0.10429732 0.13658205 0.53481114 4287461956
0.11394044 0.13681422 0.53346878 4287462213
0.12663306 0.13751894 0.53491312 4287264836
0.13414423 0.1381056 0.53709304 4287199044
-0.14324115 0.14393488 0.5343411 4280884484
-0.13927107 0.14113422 0.53100002 4282328834
0.12995526 0.14113422 0.53100002 4286737982
0.13537824 0.14415389 0.53409111 4284897327
0.14057592 0.14708644 0.53877777 4283779876
0.13640282 0.1525529 0.53320688 4283253278
0.0046226904 -0.11063111 0.54440004 4290232248
0.018266667 -0.1100807 0.54799998 4290231996
0.02259298 -0.1100807 0.54799998 4290035382
-0.041093685 -0.10086632 0.546 4289179304
-0.036249999 -0.10181759 0.54526675 4289311404
-0.02458732 -0.10415366 0.54393554 4289836978
-0.015636269 -0.10610299 0.54324394 4289968822
-0.0058991583 -0.10673447 0.54039997 4290100662
0.0052344156 -0.10735891 0.54302126 4290232246
0.016572533 -0.10637143 0.54502857 4290232245
0.023706786 -0.10412454 0.54347843 4290166454
0.032462984 -0.10099913 0.54259998 4290100662
-0.050842855 -0.09072832 0.54314286 4288718753
-0.044148207 -0.093972363 0.54269564 4288916388
-0.037270881 -0.0977422 0.54149997 4289442475
0.028776316 -0.099355265 0.54000002 4290034869
0.033863351 -0.097613715 0.54150003 4289903795
0.045774002 -0.091059208 0.54350001 4289377447
-0.053856503 -0.085070528 0.54252082 4288455325
-0.04797129 -0.088573381 0.54073334 4288652956
0.043963909 -0.089350365 0.54057145 4289508781
0.05632221 -0.081216067 0.54343748 4288455836
0.060382895 -0.081794739 0.5485 4288718751
-0.063113384 -0.073395915 0.54119349 4287402894
-0.057856686 -0.078486077 0.54062498 4287995542
0.057170253 -0.07667391 0.54158336 4288521626
0.063557446 -0.074296467 0.54744911 4287600501
-0.071184471 -0.06250114 0.54390001 4286218364
-0.066726997 -0.065658726 0.54160011 4286481529
0.064221114 -0.067324296 0.54331249 4287074409
-0.072577477 -0.058250822 0.54431254 4285626231
-0.069493689 -0.058117546 0.54039997 4281548856
0.067055248 -0.054723959 0.54394734 4286350459
0.070559993 -0.055200703 0.54719996 4286482043
-0.072120406 -0.047506977 0.54374999 4283519824
-0.069371052 -0.047040641 0.54166669 4282927945
-0.070578955 -0.035526317 0.54000002 4284178526
0.066593982 -0.036323309 0.54171425 4285166190
0.06354335 -0.022903396 0.54070973 4284375645
0.057354931 -0.01293953 0.54125804 4284507492
0.061582245 -0.015407161 0.54152 4284244321
0.05745263 -0.0070010237 0.54091662 4285297519
0.060818713 -0.0090271933 0.54166669 4285099884
-0.065699637 0.0053838314 0.54460347 4284046424
0.056946672 0.0086907018 0.54460001 4284375135
-0.063491203 0.014789599 0.54437685 4284375647
-0.059210528 0.019421054 0.54000002 4284770916
0.055535976 0.015163908 0.54288167 4284704355
0.060197368 0.011557896 0.54900002 4284704871
-0.063446447 0.02469952 0.54527277 4284440406
-0.056929674 0.026429858 0.54152012 4284374872
0.049736843 0.029368423 0.54000002 4285559914
0.054667056 0.025243383 0.54304177 4285626227
-0.062394869 0.033816248 0.54736847 4283389257
-0.055344775 0.035079606 0.54367679 4283716681
-0.047811452 0.036563572 0.54021066 4283914320
0.048441 0.036022924 0.54033339 4284243286
0.052128147 0.034209892 0.54209375 4284112211
-0.060993422 0.048986405 0.54750001 4282993442
-0.054212246 0.045283288 0.54677391 4283321396
-0.044903655 0.044814114 0.54336995 4283781960
-0.036179818 0.046395991 0.54078358 4283979342
0.029842105 0.049736843 0.54000002 4283912777
0.036187474 0.046813369 0.54113489 4283782217
0.044441421 0.044570789 0.5430342 4283848008
0.050013158 0.040486842 0.54299998 4284506442
-0.060937721 0.050381579 0.54699999 4282465551
-0.056944739 0.050717764 0.54675001 4282860061
-0.043584004 0.052499618 0.54751271 4283649599
-0.035257287 0.055070091 0.54468906 4284243286
-0.027986672 0.056505244 0.54074198 4284572509
0.015866049 0.055997569 0.54082835 4284704351
0.024890389 0.055295695 0.54346669 4284638044
0.034001566 0.053335782 0.54596436 4283584320
0.043747868 0.050473686 0.54799998 4283386415
-0.033919089 0.064709656 0.54569227 4284176710
-0.027903304 0.06539809 0.54053861 4284374089
0.0091353385 0.068548873 0.54000002 4285230687
0.015229479 0.064894013 0.54163003 4285295973
0.023261026 0.064377271 0.54684484 4285098590
-0.031302635 0.070792109 0.54900002 4283056172
-0.021315791 0.07247369 0.54000002 4281209600
-0.010594737 0.079460531 0.54900002 4284507493
-0.0081868423 0.079460531 0.54900002 4283257165
0.0082105268 0.07215789 0.54000002 4283189298
0.015259081 0.072079353 0.54451156 4283518009
0.021853598 0.071209736 0.54629999 4283780154
-0.012160146 0.082226895 0.54873908 4284769875
-0.0050709601 0.083335608 0.54836845 4284769621
0.0018567669 0.082902633 0.54871422 4284966747
-0.15128246 0.12870856 0.54750001 4283316755
-0.14462607 0.1272293 0.54527539 4285486620
-0.13514531 0.12664938 0.54407793 4286933806
-0.12497438 0.12672549 0.5446915 4287064363
-0.11544708 0.12686621 0.54407901 4287129899
-0.1049418 0.12700678 0.54469842 4287064103
-0.095247462 0.12706962 0.54453707 4287130410
-0.084993921 0.12778796 0.54486793 4287196458
-0.075086057 0.12806946 0.546148 4287065904
-0.065164387 0.12816851 0.545717 4286736682
-0.054774377 0.12846118 0.54404646 4286012699
-0.045427084 0.12901796 0.542871 4285091603
-0.034733895 0.12894878 0.54664004 4284237324
-0.026612544 0.12829527 0.54369998 4284105732
-0.0099657895 0.12955527 0.54100001 4284303119
0.033442985 0.12911667 0.54900002 4284829454
0.065441854 0.12945513 0.54457146 4286408492
0.078259647 0.12931931 0.54400003 4286803509
-0.15223427 0.13568598 0.54569763 4282134032
-0.14686842 0.1339962 0.54154176 4282987534
-0.13926315 0.13026316 0.54000002 4285814041
-0.073152572 0.13057141 0.54313332 4287262769
-0.062802881 0.13058008 0.54414284 4287195947
-0.055942476 0.13040452 0.54171425 4286670630
-0.044577513 0.13084491 0.54009098 4285815322
-0.035144646 0.13171904 0.54464585 4284828941
-0.024435496 0.13155989 0.54188895 4284434444
-0.01261684 0.13372274 0.54270011 4284697611
-0.0057037356 0.13134278 0.54011112 4284434701
0.003893734 0.1331435 0.54160005 4284763151
0.01530119 0.13371424 0.54548383 4284960526
0.026059028 0.13291764 0.54704881 4285157652
0.034884207 0.13286249 0.54484415 4285486874
0.045923837 0.13258788 0.5442251 4285947425
0.055053417 0.13242514 0.54536629 4286276905
0.065049611 0.13272016 0.54316199 4286539823
0.07491371 0.13275994 0.54207802 4286869814
0.084580816 0.13292685 0.54298764 4286737460
0.095022462 0.13329166 0.54547912 4287001149
0.10486159 0.1336759 0.54493058 4287461700
0.1149182 0.13480446 0.54236692 4287462215
0.12480499 0.1354121 0.5436002 4287396421
0.13563301 0.13515179 0.54446888 4287330885
0.14366704 0.13637394 0.5459556 4286869823
-0.15196262 0.14237499 0.54305547 4279109388
-0.14851625 0.14257269 0.54073679 4280818952
0.14500242 0.14551911 0.54446274 4283910949
0.14622894 0.15003948 0.54299998 4283254299
-0.0004885965 -0.11677456 0.55699998 4290561467
0.0048508313 -0.11564159 0.55636841 4290363576
0.013944574 -0.11330539 0.55377102 4290363833
0.027214037 -0.11080001 0.55399996 4289771950
0.014417544 -0.10944913 0.55159998 4290298040
0.027583331 -0.10727194 0.55277771 4290166453
0.058907893 -0.090065792 0.55500001 4289311395
0.057967927 -0.086497307 0.55341375 4288850592
0.063463308 -0.084230438 0.55556524 4288785057
-0.067061409 -0.072850883 0.55000001 4287073670
0.066925898 -0.076258592 0.55211115 4287929468
0.070921049 -0.058377195 0.55000001 4286613117
0.066419736 -0.00097697368 0.55675 4285034603
-0.068991229 0.0091666663 0.55000001 4284506985
0.058998954 0.0058100005 0.55220002 4284704610
0.063872352 0.0044963108 0.55420661 4285099628
-0.071866594 0.015005443 0.55620587 4284505675
-0.068437345 0.015522319 0.55100006 4284573023
0.06273701 0.013858372 0.55540007 4285165418
-0.071667366 0.024937069 0.55492586 4286408494
-0.068428554 0.025631832 0.55129164 4283912505
-0.070719302 0.031214036 0.55599999 4280949785
-0.066335693 0.034545027 0.55172223 4285032809
-0.062097985 0.042529758 0.55238456 4287008668
-0.058282677 0.045153257 0.55070585 4282860846
-0.05142064 0.054666713 0.55500001 4283452211
-0.045953557 0.056640163 0.55294234 4283715903
0.029429823 0.059342105 0.55000001 4284637783
0.036082245 0.057736482 0.55394119 4283650108
0.04289915 0.054292034 0.5531708 4283319851
-0.043354873 0.06362354 0.55412281 4283913282
-0.038262166 0.067275874 0.55125004 4283846715
0.027237279 0.065250993 0.55074996 4284703316
0.033052094 0.062961169 0.55494434 4284110669
-0.040553506 0.070846491 0.55699998 4283846452
-0.033372257 0.074465014 0.55587506 4283781177
-0.025579672 0.07680174 0.55480307 4283584577
-0.015279231 0.077394344 0.55145144 4282202671
-0.0053747026 0.078243129 0.55070966 4280360723
0.0051058079 0.078065269 0.5512445 4281346070
0.014753866 0.077822216 0.55527282 4282859564
0.020594738 0.077475443 0.55900002 4283714873
-0.031239476 0.081575967 0.5582 4284504652
-0.024663301 0.084129348 0.55553323 4284373065
-0.01573785 0.085248925 0.55179715 4283978558
-0.0044907187 0.08690282 0.55141872 4283779117
0.0055286749 0.085508779 0.55236483 4284110146
0.013471931 0.082617737 0.55536366 4284242762
-0.020104386 0.090714917 0.55900002 4284570450
-0.013577474 0.093883425 0.55741167 4284505675
-0.004883694 0.095253922 0.55683303 4284571211
0.0047246208 0.093946591 0.55813557 4284833871
0.010297368 0.097089477 0.55900002 4285361499
-0.0058801174 0.10046199 0.55866671 4284241986
-0.15390441 0.12516935 0.55486143 4284368410
-0.14497864 0.12282872 0.55427408 4286999601
-0.13527928 0.12301846 0.5547958 4287130159
-0.12498885 0.12239774 0.55349994 4286998829
-0.1145523 0.12324958 0.55407017 4287064361
-0.1050921 0.12385039 0.55448228 4287063848
-0.09513098 0.12447068 0.55431998 4286999083
-0.084867008 0.12454328 0.55431807 4287065394
-0.075267322 0.12531997 0.5546667 4286539563
-0.065431669 0.12562072 0.55495727 4285947683
-0.056286786 0.12685719 0.55396777 4285092375
-0.021498244 0.12947807 0.55699998 4284039429
-0.010205264 0.12975264 0.55400002 4284171778
-0.0044626854 0.12985906 0.55638462 4284039683
0.006683772 0.12913465 0.55500001 4283974406
0.015072991 0.12883684 0.55424249 4284171274
0.025222389 0.12887524 0.55169564 4284500238
0.036240704 0.12949577 0.55500007 4284829455
0.044619299 0.12891099 0.55392301 4285421592
0.057999693 0.12938428 0.55364293 4286013482
0.064216666 0.12919168 0.55500007 4286276395
0.075777233 0.12895878 0.55788887 4286606131
0.083003372 0.12854145 0.55751997 4286868784
0.096744753 0.12910073 0.55608338 4287330110
0.10311922 0.12873754 0.55568004 4287461957
0.1126634 0.12950183 0.55863643 4287528007
0.12605718 0.12959246 0.5575 4287593543
0.1340335 0.12975983 0.55745453 4287461958
-0.16034473 0.13190439 0.55900002 4282331416
-0.15777384 0.13477352 0.55326676 4281542670
-0.021253947 0.13167675 0.55699998 4284105737
-0.010542106 0.131531 0.5546667 4284171530
-0.0044584461 0.13159795 0.55382848 4284105992
0.0050342479 0.13194694 0.55393612 4284237065
0.014757309 0.13205485 0.55245823 4284566028
0.023603229 0.13108011 0.55122727 4284697620
0.037208386 0.13093822 0.55400002 4285026323
0.044278529 0.13143577 0.55290914 4285487131
0.054060526 0.13047017 0.55500001 4285947944
0.066273563 0.13049111 0.55466664 4286408236
0.074859641 0.13131401 0.5564999 4286737203
0.08393538 0.13098581 0.55683333 4286539307
0.094469219 0.13134533 0.55228126 4286803251
0.1056223 0.13093248 0.55185181 4287462211
0.11562429 0.13227053 0.55455768 4287528006
0.12449056 0.13204065 0.55318654 4287527751
0.1347703 0.13200431 0.55307841 4287462215
0.14496872 0.13385345 0.55236733 4287001667
0.15216053 0.13880154 0.55374998 4284765484
0.14882664 0.14285694 0.55036372 4283911464
0.15272352 0.14417335 0.55367512 4283582245
0.15259299 0.15016316 0.55400002 4283449629
-0.074829824 0.015731344 0.56146663 4285557066
0.065113239 0.016891884 0.5609166 4285297262
0.043416448 0.059491452 0.56400001 4283451954
-0.047297314 0.066557616 0.56313783 4283912509
0.028982455 0.068771929 0.56 4284570701
0.036577623 0.066742443 0.56466669 4284242251
0.042078733 0.064099513 0.56725007 4284044613
-0.041929331 0.074505873 0.56378561 4283780920
-0.037027221 0.07660269 0.56234282 4284044354
0.025737148 0.075676017 0.56135315 4283978047
0.033725608 0.073428869 0.56472236 4284308039
-0.040892549 0.080288157 0.56850004 4283847483
-0.034488805 0.084880538 0.56515396 4284439371
-0.026992282 0.088383608 0.56079996 4284505423
0.016028423 0.086998411 0.5618667 4284438860
0.023399593 0.084347375 0.56553966 4284570960
-0.03186477 0.093733765 0.56756663 4284636230
-0.024871463 0.095135137 0.56291407 4284636749
-0.017007362 0.097196028 0.56082135 4284570957
0.0052542216 0.097420894 0.56037509 4285031504
0.014449933 0.094282374 0.56562346 4285097559
0.02216813 0.091566019 0.56833339 4284900184
-0.030349202 0.10496961 0.56718183 4281341184
-0.025217569 0.10474095 0.56588614 4282000910
-0.015148584 0.10359278 0.56304604 4283253807
-0.0046839574 0.10402968 0.56167817 4283121963
0.0050291233 0.10454307 0.56427479 4282793515
0.013971366 0.10489067 0.56787711 4282201898
0.020464035 0.10431667 0.56900001 4281076224
-0.16104078 0.11897544 0.5675 4284894232
-0.15511955 0.11866961 0.56620687 4286801966
-0.14482346 0.11921444 0.56440002 4286999859
-0.13590357 0.1189533 0.5657692 4286933037
-0.12563457 0.1194921 0.56620002 4286932781
-0.1138 0.11929035 0.56900001 4286735652
-0.02734386 0.11087403 0.5668 4281342464
-0.16326861 0.12539944 0.56467265 4282726176
-0.15654317 0.12226071 0.56202948 4285157408
-0.14524545 0.12064753 0.56081253 4287130934
-0.13471422 0.12071417 0.56186211 4287064366
-0.12438525 0.12070414 0.56482857 4286932780
-0.11481342 0.12102517 0.56535721 4286998057
-0.10480064 0.12140254 0.56394738 4286932520
-0.09508758 0.1217164 0.56416672 4286933547
-0.086745135 0.12248644 0.56327271 4286736685
-0.074468188 0.12347057 0.56296772 4285816099
-0.063961744 0.12417134 0.56676608 4284829469
-0.057598289 0.12498307 0.56562507 4284237589
-0.021999402 0.12811981 0.56413645 4283776260
-0.015158107 0.12773862 0.56379986 4283776260
-0.0050376486 0.12833017 0.56234211 4283776259
0.0023317044 0.1287391 0.5638572 4283710722
0.015606504 0.12799734 0.56569433 4283907849
0.024839202 0.12800777 0.56556416 4284039947
0.034987014 0.128161 0.56546146 4284368913
0.044849128 0.12811017 0.56573689 4285223703
0.054473605 0.12826139 0.56424385 4285684516
0.065356411 0.12762515 0.56546152 4286145066
0.074914865 0.12637758 0.5653168 4286408494
0.086199313 0.12791933 0.56703132 4286803254
0.094505623 0.12741931 0.5648393 4287132992
0.10738913 0.12797655 0.56463635 4287593542
0.11528593 0.12752946 0.56405663 4287527751
0.12453998 0.12795912 0.56460422 4287593543
0.13349043 0.12804215 0.56351233 4287461959
0.14484432 0.12818949 0.56524515 4287461960
0.15388177 0.12838744 0.56599998 4287528008
-0.16509089 0.13274528 0.56400001 4280227851
-0.015548517 0.13071559 0.5633077 4283973638
-0.0078947367 0.13075659 0.5625 4284235776
0.0034520833 0.13053717 0.56262499 4283973635
0.025747372 0.13023114 0.56450003 4284302859
0.033732451 0.13066448 0.56450003 4284631566
0.048978951 0.13011579 0.56400001 4285618461
0.053676136 0.13112664 0.56142104 4285881890
0.064305924 0.13071822 0.565 4286079273
0.088655107 0.13211125 0.56063628 4286604591
0.091285355 0.13132183 0.56069994 4286670906
0.10500526 0.13064034 0.56199998 4287593289
0.11823175 0.13061491 0.56019998 4287594055
0.12035087 0.13017543 0.56 4287659334
0.13557895 0.13017543 0.56 4287395904
0.14550042 0.13123694 0.56143481 4287265094
0.15466818 0.13445079 0.56177956 4286343992
0.16194256 0.13683631 0.56692004 4284305451
0.15830298 0.14164859 0.565 4283779880
0.16205722 0.14147379 0.56766665 4283517479
0.046725336 0.066016234 0.57507128 4284176458
0.05147922 0.06638661 0.57863164 4284440151
0.033493567 0.078968421 0.57177782 4284241477
0.045233075 0.071808517 0.57864714 4284571469
0.050194737 0.070475444 0.57800001 4284505438
-0.040730923 0.086491004 0.57325 4280292867
-0.038460258 0.087120309 0.57053852 4283846195
0.028119782 0.086662404 0.57203716 4284702799
0.032577522 0.083783165 0.57406253 4284504906
-0.035188708 0.095571026 0.57117939 4281606669
0.017730769 0.098653845 0.57000005 4285295450
0.024500687 0.094362549 0.57214624 4285097812
0.031299561 0.090868421 0.57550001 4285227855
-0.03398912 0.10154806 0.57253337 4280684544
0.017605262 0.10192105 0.56999999 4284504905
0.020499999 0.103 0.56999999 4283186993
-0.1705693 0.11995527 0.57700002 4282727737
-0.16467392 0.11802262 0.57544118 4284632356
-0.15533002 0.11723305 0.57618743 4287065394
-0.14445065 0.11733864 0.57425576 4286933296
-0.13473628 0.11692901 0.57559639 4286801706
-0.12523144 0.11735821 0.5744108 4286670376
-0.11500823 0.11712983 0.57444602 4286603809
-0.10526151 0.11807108 0.57310653 4286735913
-0.095131554 0.11846478 0.57507414 4286210343
-0.085474335 0.11863001 0.5756551 4285157647
-0.079464041 0.11995527 0.57700002 4285091613
-0.046218421 0.11935527 0.579 4282920448
-0.1705693 0.12096754 0.57700002 4282728239
-0.16749378 0.12118617 0.57377774 4283253284
-0.13141578 0.1203386 0.574 4286867498
-0.12940176 0.1203386 0.574 4286867494
-0.1045 0.12049998 0.56999999 4286932263
-0.091763861 0.12078454 0.5704 4286540333
-0.084952779 0.12224151 0.57321149 4285880862
-0.074999459 0.12171771 0.57429624 4284961051
-0.065942146 0.12174372 0.57317871 4284369687
-0.054145668 0.12341012 0.57249051 4283512837
-0.045046777 0.12403969 0.57779235 4283183617
-0.036881506 0.12544137 0.57732344 4283183360
-0.013323831 0.1272378 0.57675004 4283183617
-0.0041108439 0.12674171 0.57819128 4282986240
0.0033237808 0.12686706 0.57800001 4283446784
0.015895907 0.12685165 0.57666665 4283643906
0.022436364 0.12620431 0.57654548 4283710210
0.036906768 0.1270204 0.57299995 4284171532
0.045789801 0.1256095 0.57363629 4284763416
0.055870868 0.12642777 0.57597613 4285355810
0.063822038 0.12546967 0.57457501 4285881893
0.076033153 0.12531947 0.57099998 4286408494
0.085572965 0.12520848 0.57206523 4286737463
0.094610929 0.1243612 0.57342505 4287132993
0.10422135 0.12568615 0.57278168 4287462217
0.11509318 0.12541342 0.57538474 4287725130
0.12559839 0.1256777 0.57482046 4287659079
0.13299897 0.12459343 0.57522577 4287659082
0.14521784 0.12530021 0.5767315 4287659335
0.15375546 0.12625287 0.5740208 4287659594
0.1629228 0.12962632 0.57800001 4287462466
0.1595 0.13250001 0.56999999 4287198522
0.16317192 0.13252276 0.574 4286343735
-0.13507894 0.039850876 0.58999997 4285621811
-0.12731579 0.039333329 0.58999997 4290825957
-0.113538 0.037673388 0.58833337 4285294945
-0.14192434 0.047795616 0.58721048 4285889671
-0.13580233 0.045089025 0.58806062 4289310135
-0.1291272 0.041144736 0.58999997 4290759138
-0.14408131 0.054908223 0.58716917 4285494397
-0.13814761 0.053314161 0.58514291 4287600034
-0.14311174 0.061220247 0.58799994 4283979595
-0.13977896 0.06086316 0.588 4284307520
0.044427864 0.072949648 0.58058822 4284768848
-0.17170934 0.11525391 0.58555007 4283056427
-0.16499121 0.11426534 0.58445007 4286013484
-0.15469955 0.11348096 0.58442861 4286933811
-0.14538366 0.1141167 0.58372545 4286670637
-0.13539536 0.11378215 0.58583331 4286604588
-0.12453531 0.11380295 0.58463454 4286341409
-0.114846 0.11434953 0.58714283 4286209564
-0.105134 0.11563359 0.58532703 4286275881
-0.096914239 0.11626775 0.5848636 4285486363
-0.08413142 0.11761818 0.58307403 4285026062
-0.074879184 0.11823726 0.58411533 4284368914
-0.067944355 0.11921678 0.58871424 4283843083
0.08699052 0.11947157 0.58959997 4286144034
0.093861111 0.11934999 0.58899999 4286275617
0.10343207 0.11972 0.58411109 4286934318
0.11467274 0.11901362 0.58461541 4286934069
0.12609638 0.11928094 0.58866668 4283908629
0.13005088 0.11977018 0.58600003 4286210341
-0.07018245 0.12089825 0.58399999 4284368914
-0.064358763 0.1217142 0.58700007 4283974159
-0.055295352 0.12204585 0.58854061 4283381249
-0.041697938 0.12221961 0.58011764 4282985216
-0.039215129 0.12280942 0.58824998 4282853888
-0.021057336 0.12469785 0.58809084 4282327808
-0.015189271 0.125048 0.58469224 4282196224
-0.0079495618 0.12628378 0.58268178 4282525440
0.0069756941 0.12707876 0.58579171 4283248896
0.015214586 0.12550583 0.5846529 4283315456
0.026754212 0.1271394 0.58586675 4283644417
0.034369521 0.12599155 0.58577955 4283841541
0.044972111 0.12417568 0.58812767 4284237326
0.054260395 0.1236826 0.58538008 4284961054
0.064476363 0.12289216 0.58324242 4285750305
0.07743898 0.12260713 0.58811116 4286145064
0.084822945 0.12264225 0.58495247 4286408236
0.095781676 0.12236056 0.58333325 4286803508
0.10521386 0.12217162 0.58202177 4287199037
0.1152526 0.12242757 0.58261991 4287527492
0.12493587 0.12240227 0.58380008 4287592773
0.13470685 0.12210538 0.58654755 4287527236
0.14477465 0.12261741 0.5850243 4287725129
0.15555334 0.12404825 0.58694124 4287528012
0.16461888 0.12540357 0.58541346 4287330888
0.17098342 0.12584747 0.588 4286476088
-0.0030526314 0.13075438 0.57999998 4283579139
0.16694212 0.13018422 0.58200002 4287002161
-0.12190537 0.029524669 0.59837496 4289307813
-0.11927456 0.029424559 0.59899998 4290759130
-0.13204151 0.037235387 0.59158605 4287661414
-0.12475824 0.034889065 0.5942297 4289901495
-0.11725269 0.034297291 0.59569764 4288522416
-0.15182772 0.049215786 0.59560001 4281876034
-0.14784686 0.048786968 0.59257138 4281414972
-0.13364896 0.04385842 0.59100002 4288388774
-0.15271153 0.05140819 0.59733337 4281613379
-0.14808568 0.050400298 0.59233338 4280759106
-0.17250124 0.10923983 0.597 4284567090
-0.16479519 0.10857596 0.59509379 4286736694
-0.15506896 0.10890193 0.59525001 4286407471
-0.14560786 0.10886399 0.59761906 4285552680
-0.13530812 0.10938205 0.59740001 4285355042
-0.1273821 0.10956 0.59759998 4285421082
-0.11349473 0.10981666 0.59899998 4285354001
0.089324564 0.10692675 0.59899998 4287071606
0.092624702 0.1068095 0.59883332 4287795841
0.10502923 0.10686782 0.59736055 4290890191
0.11449279 0.10824388 0.59412509 4292272878
0.12475336 0.10949001 0.59452629 4292930811
0.13361599 0.10934129 0.59541178 4292865278
0.1449469 0.10883971 0.59776181 4292602365
0.15238008 0.10946403 0.59871429 4292207346
-0.17256275 0.11141029 0.59394735 4283910452
-0.16595973 0.11118904 0.5921905 4286737203
-0.15350614 0.11078694 0.59233332 4286604849
-0.14487708 0.11151581 0.59371799 4286276395
-0.13454756 0.1111946 0.59280646 4285946916
-0.12504542 0.11115508 0.59444112 4285815067
-0.11520088 0.11188148 0.59453845 4285814810
-0.10506879 0.11290734 0.59368753 4285617431
-0.094365768 0.11477411 0.59468323 4285091598
-0.085008651 0.11513791 0.59551615 4284631819
-0.076084957 0.1161056 0.59580636 4283974152
-0.064814299 0.11813496 0.59402776 4283710985
-0.055654932 0.11892024 0.59255165 4283249667
-0.045976318 0.11950088 0.597 4282788608
-0.036596492 0.11972282 0.59600002 4282394112
0.028598871 0.11882418 0.59899998 4282524928
0.032522805 0.11907544 0.59799999 4282984704
0.055463064 0.11900343 0.59588891 4284566551
0.077594444 0.11925409 0.59366661 4285748753
0.084723897 0.11856835 0.59350002 4285815318
0.10699116 0.11469715 0.59641504 4284304687
0.11506316 0.11543546 0.59511638 4284699969
0.12463474 0.11466615 0.59248805 4287663492
0.13508227 0.11527307 0.59254956 4288059277
0.14509411 0.11501343 0.59559792 4287598732
0.15412654 0.11541854 0.59731501 4285557592
0.1653478 0.1186891 0.59685183 4287066684
-0.063247368 0.12131053 0.59100002 4283842827
-0.05135205 0.12086024 0.59133333 4283052546
-0.04539106 0.12158007 0.59667557 4282919680
-0.035011508 0.12293086 0.59363985 4282590720
-0.025514649 0.12296354 0.59769994 4282065920
-0.015010036 0.12289266 0.59665108 4281474560
-0.005048173 0.12403705 0.59550011 4281145600
0.0044303238 0.12433147 0.59298283 4281999360
0.011424562 0.12411229 0.59200001 4283051008
0.025468746 0.12333535 0.5950768 4283117312
0.034611333 0.12264877 0.59759986 4283446529
0.044437245 0.12195659 0.59592313 4283908359
0.055566449 0.12157094 0.5944643 4284698138
0.065052316 0.12178604 0.59521747 4285487649
0.074353367 0.12129058 0.5940938 4285947171
0.081981704 0.12048446 0.59314287 4286079004
0.10738637 0.12108684 0.59663641 4286473773
0.11490132 0.12014255 0.59549999 4285422108
0.12120088 0.12016053 0.59299999 4286013736
0.13945527 0.12493947 0.59100002 4288052816
0.14503308 0.12149997 0.59244001 4287394878
0.15560262 0.12150748 0.59272969 4287329858
0.16519737 0.12118723 0.59221429 4287199048
0.1717191 0.12139259 0.59622222 4287067969
-0.11529598 0.028173003 0.60477775 4290760676
-0.11364818 0.031520877 0.60171992 4290956763
-0.15315789 0.053157896 0.60000002 4281876037
0.079597376 0.09989737 0.60900003 4290364113
0.086000592 0.098573774 0.60680646 4290694104
0.094455928 0.098412663 0.60575682 4291944172
0.10063421 0.099569291 0.60699999 4292338419
-0.18056315 0.10844475 0.60900003 4278190088
-0.17427494 0.10657887 0.60634786 4283844650
-0.16498452 0.10657775 0.60466665 4286604846
-0.15619053 0.10727502 0.60445458 4286078763
-0.14436509 0.1079579 0.60284209 4284895267
-0.13519543 0.10757376 0.60539532 4284500247
-0.12522273 0.10873745 0.60509998 4284828943
-0.11573789 0.10914526 0.60550004 4284763405
-0.1053283 0.10937134 0.6054666 4284763145
-0.094555266 0.10951316 0.60900003 4284697106
0.077181958 0.1053661 0.60745007 4286083686
0.084807038 0.10335302 0.60288239 4288125594
0.095186561 0.10382773 0.60111427 4289639348
0.10411959 0.10244992 0.60271055 4292272882
0.11356112 0.10564307 0.60319048 4292536568
0.12676509 0.10882427 0.60873342 4292865277
0.13519011 0.10863917 0.60734612 4292865533
0.14515513 0.10744377 0.60521215 4292733692
0.15565693 0.10640473 0.60522956 4292602107
0.16340126 0.10486057 0.60553133 4291615471
0.17041317 0.10363685 0.60900003 4289380053
-0.18080001 0.11093333 0.60799998 4278190099
-0.17888036 0.11082701 0.60800004 4279045140
-0.1226721 0.11003667 0.6002 4285420303
-0.11531696 0.11016141 0.60088885 4285288720
-0.10429098 0.11125526 0.60211778 4285157135
-0.095776774 0.11149169 0.60526663 4285025809
-0.084037036 0.11240464 0.60423076 4284105478
-0.074873015 0.11397579 0.60307515 4283841541
-0.06499891 0.11669521 0.60637498 4283578887
-0.054876808 0.11699159 0.60787755 4282919937
-0.045374919 0.11855658 0.6067813 4282656512
-0.035570074 0.11900145 0.60611767 4282261760
-0.024521826 0.1186954 0.60711765 4280620288
-0.019749561 0.11849693 0.6085 4279699200
-0.0024000732 0.1190049 0.60791665 4278583296
0.003738346 0.11873985 0.60857147 4278779904
0.024589363 0.11925231 0.60287499 4282262784
0.037469298 0.11926421 0.60159999 4283249408
0.045725118 0.11930072 0.60299999 4283579396
0.052733336 0.11864662 0.60114282 4284039690
0.065106682 0.11884069 0.60192317 4285157915
0.075610735 0.11866096 0.60324997 4285289490
0.083946116 0.11808904 0.60473084 4284369165
0.095715806 0.11740755 0.60405201 4282723846
0.10299647 0.11594751 0.60113949 4282329100
0.12676604 0.11047457 0.60757142 4292865276
0.13539048 0.1103376 0.60600001 4292799229
0.15818901 0.11302916 0.60029411 4287599761
0.16328317 0.11578466 0.60316664 4285292598
0.17287788 0.11836257 0.60293329 4287067456
-0.051696617 0.12067632 0.60757142 4282985472
-0.043474209 0.12062578 0.60580003 4282722304
-0.034159694 0.12063103 0.60405552 4282262272
-0.024561284 0.12117276 0.60446662 4281409024
-0.016742799 0.12066108 0.60542107 4280027648
-0.004721594 0.12165894 0.6055001 4279371008
0.0054384121 0.12172884 0.60684198 4279830784
0.013346875 0.12268476 0.60482055 4281605120
0.023220506 0.1208512 0.60162503 4282524928
0.037368421 0.12138756 0.59999996 4283512833
0.044555444 0.12074945 0.6027894 4283710469
0.050567985 0.12062676 0.60049999 4284040972
0.064557187 0.12120645 0.60099995 4285421343
0.074315086 0.12047509 0.60080004 4285618205
0.09478166 0.12060303 0.6018182 4286144288
0.10174824 0.12072719 0.60100001 4286143259
0.17479834 0.12135545 0.60122222 4286870843
-0.14278466 0.088056386 0.61838895 4286478424
-0.13793661 0.088063538 0.61700004 4287467924
0.16995351 0.089592107 0.61900002 4291155176
0.17468068 0.088761657 0.61900008 4290957800
-0.14271325 0.092897676 0.61672002 4285026585
-0.13600375 0.094651602 0.61562127 4285032789
-0.12959035 0.095176317 0.61299998 4284969325
0.068682201 0.097387806 0.61750001 4286152058
0.074752122 0.095911562 0.61525297 4289904073
0.085531183 0.094928324 0.61423647 4290891742
0.094889067 0.093650818 0.61440635 4291418345
0.10386886 0.097603396 0.61642414 4292207605
0.11076959 0.099565499 0.61800003 4292733949
0.15821569 0.099524461 0.61699998 4292470781
0.16618605 0.096254915 0.61532825 4291615474
0.17391531 0.09489166 0.61475378 4291023591
-0.18250151 0.10790777 0.61114293 4278190081
-0.17497687 0.10394644 0.6150555 4283515434
-0.16498381 0.104762 0.61722207 4286407725
-0.1541408 0.10476104 0.61384791 4285486629
-0.14503188 0.10502848 0.61396712 4284697628
-0.13524774 0.10401887 0.61594641 4283579148
-0.12506913 0.10619541 0.61456537 4283710214
-0.11484776 0.10683463 0.6139245 4284104455
-0.10745249 0.10842146 0.61495006 4284499978
-0.094769567 0.10948097 0.61256248 4284566030
-0.086608551 0.10934188 0.61708337 4284039430
0.067687213 0.10428353 0.6154865 4285097300
0.073271476 0.10414769 0.61188912 4286412652
0.10708077 0.10133267 0.61391664 4292404982
0.11567298 0.10307475 0.61466044 4292602619
0.12475762 0.10479514 0.61362338 4292931325
0.13511188 0.10469635 0.61398357 4293062910
0.14513864 0.10393038 0.61435485 4292931582
0.15416095 0.10224685 0.613585 4292668157
0.16624314 0.10116611 0.61021054 4291549934
0.17215024 0.10186667 0.61028576 4290168028
-0.18443973 0.11462428 0.61221957 4278190085
-0.091209553 0.11227115 0.61044449 4284631820
-0.085020564 0.11153872 0.61381066 4284105223
-0.074153744 0.11338358 0.61527276 4283776260
-0.064648427 0.11387129 0.61267644 4283381255
-0.058890603 0.11432569 0.61271423 4282986497
-0.044745695 0.11634389 0.61228132 4282393856
-0.036923345 0.11737627 0.61469567 4281868032
-0.022770956 0.11670857 0.61000007 4279896576
-0.014359024 0.11850107 0.61431438 4278845440
-0.0058096494 0.11805086 0.61172718 4278517760
0.0066165566 0.11883213 0.614375 4278845440
0.014421419 0.11900658 0.61458331 4279896064
0.024971895 0.11836744 0.61545831 4281736704
0.03527214 0.11892468 0.61585724 4282722560
0.044582989 0.11883028 0.6156522 4283183872
0.057503723 0.11842452 0.61675012 4284106255
0.065715283 0.11734419 0.6163249 4284171782
0.074022993 0.11532839 0.61458457 4282657285
0.087471657 0.11598087 0.61445171 4281670404
0.09199205 0.11478071 0.6128 4279897088
0.16819581 0.11549524 0.61363155 4284172839
0.17439784 0.11511511 0.6156038 4284699433
-0.01197902 0.12138852 0.6114167 4279173120
-0.0091114035 0.12112807 0.611 4278976512
0.01597807 0.12062269 0.61271423 4281014784
0.024918947 0.12037122 0.6148001 4282065408
0.034529671 0.12053397 0.61418182 4282854144
0.042894006 0.12025306 0.61383337 4283315201
0.057091229 0.12010702 0.61400002 4284434962
-0.11093772 0.049184211 0.62300003 4287336591
-0.10838541 0.048751436 0.62318188 4287666325
-0.13107017 0.059280705 0.62 4290167250
-0.12465657 0.058661234 0.62057143 4286152317
-0.11363745 0.056808759 0.623739 4285493868
-0.10532129 0.055612452 0.62419254 4286480511
-0.09838675 0.057452533 0.62777776 4287007112
-0.13316873 0.065932646 0.62116283 4286810509
-0.12496664 0.0651002 0.62244439 4285098082
-0.11487813 0.065137379 0.62522352 4285558375
-0.10494449 0.065383002 0.62634557 4285229667
-0.095604785 0.065724388 0.62646389 4285954681
-0.089446492 0.065776311 0.6275 4284636746
-0.14404981 0.076850004 0.62418181 4288848798
-0.13558777 0.0743699 0.62395519 4285428336
-0.12436752 0.073285736 0.62257892 4284373064
-0.11484152 0.074877888 0.6249634 4286150769
-0.1054299 0.074624866 0.62674987 4287403424
-0.096797928 0.072708137 0.62521422 4287468438
0.17794606 0.078447521 0.62783331 4290892517
0.18293557 0.076743491 0.62796772 4291352556
-0.14441328 0.083734863 0.62180316 4287070567
-0.13708188 0.085107163 0.62761378 4285756533
0.065658771 0.089935966 0.62900001 4287337100
0.075996496 0.089838952 0.6268 4290233555
0.086278625 0.089054897 0.6240527 4289839052
0.094988704 0.085506529 0.62458152 4289707727
0.10142952 0.086468726 0.62741178 4291483888
0.16682532 0.087777011 0.62584209 4291550452
0.17508239 0.084418826 0.62330669 4291155178
0.18273899 0.082854487 0.62599999 4290957794
-0.18143158 0.099263161 0.62866664 4278190080
-0.1751079 0.099118099 0.62774998 4285290030
-0.16619036 0.099804036 0.6286 4286604587
-0.1548499 0.099744067 0.62822223 4286539567
-0.14606485 0.097933628 0.62646669 4285025309
-0.1318858 0.099378422 0.62180001 4284308299
-0.12502742 0.099817768 0.62524998 4282657037
-0.11720023 0.099827856 0.62875003 4282918656
0.059446927 0.09797807 0.6275 4284307799
0.06464345 0.094727732 0.62513173 4285427563
0.076671533 0.091468267 0.62272722 4290365143
0.083530046 0.091798514 0.62127584 4290628315
0.099062718 0.090897806 0.62049997 4292470269
0.10556953 0.0945336 0.62404889 4292207606
0.11492399 0.097413354 0.62441182 4292799485
0.12475158 0.098307699 0.62397444 4293391359
0.13529548 0.0987527 0.62561899 4293325823
0.14558481 0.097891301 0.62652177 4293193983
0.15514255 0.096182279 0.62538654 4292668158
0.16332953 0.093216345 0.62342852 4292076282
0.17892982 0.091368422 0.62 4290037723
0.18001755 0.091912277 0.62 4289445845
-0.18089101 0.10159539 0.62774998 4278190080
-0.17465129 0.10207797 0.62345707 4285684530
-0.16499914 0.10124835 0.62205565 4286473263
-0.15508866 0.10168459 0.62385297 4286012967
-0.14589651 0.10145956 0.62434775 4284960543
-0.13279262 0.10184566 0.62088227 4283648558
-0.12484924 0.10265253 0.62376195 4282721793
-0.11509585 0.10299611 0.62443483 4283577856
-0.10439603 0.10619991 0.62248069 4284368646
-0.095485695 0.10743541 0.62468517 4284171015
-0.085227318 0.10852664 0.62599993 4284038916
-0.076368883 0.10919426 0.62629414 4283644679
-0.065658771 0.10979912 0.62900001 4283051520
0.059157483 0.10423189 0.62752944 4282396441
0.062884688 0.10342477 0.62224317 4284175937
0.11865745 0.10069518 0.62049997 4292865278
0.12497167 0.10080395 0.62049997 4293193983
0.13568626 0.10102304 0.62225002 4293260031
0.14306773 0.10090831 0.62182355 4293128703
0.1753902 0.10928567 0.62450004 4288322460
-0.10349999 0.11058158 0.62099999 4284762891
-0.080334216 0.11039035 0.62300003 4283907337
-0.075018495 0.11207227 0.62169236 4283710471
-0.064947277 0.11169423 0.62362158 4283183362
-0.05520669 0.11376309 0.62491679 4282787840
-0.045104977 0.1139126 0.62372094 4281934336
-0.036800653 0.11423185 0.62133336 4281080320
-0.01522807 0.11692983 0.62 4279435776
0.019035088 0.11692983 0.62 4279699968
0.024760127 0.11667161 0.62099993 4280881664
0.03520311 0.11736243 0.62229162 4282328320
0.046405211 0.11628903 0.62437773 4282723072
0.054463126 0.11604936 0.62360001 4283052544
0.061065502 0.11536978 0.62466663 4283183104
0.078666374 0.11481842 0.62133336 4281211392
0.083403669 0.11458118 0.62123692 4280948998
0.17381048 0.11121698 0.62205875 4287334779
0.049650874 0.1205807 0.62199998 4283513096
0.052357238 0.12053224 0.62175 4283578627
-0.10018509 0.053690348 0.63099998 4289573818
-0.095419414 0.056252372 0.63004351 4287863195
-0.093250722 0.062967591 0.63027787 4286216055
-0.089256145 0.068743855 0.63200003 4283910692
0.17824785 0.069025248 0.63744444 4292799742
