# .PCD v0.7 - Point Cloud Data file format
VERSION 0.7
FIELDS x y z rgb
SIZE 4 4 4 4
TYPE F F F U
COUNT 1 1 1 1
WIDTH 1054
HEIGHT 1
VIEWPOINT 0 0 0 1 0 0 0
POINTS 1054
DATA ascii
0.076820448 -0.065223373 0.53525639 4287732626
0.080994211 -0.061806839 0.53619999 4287469454
-0.062235478 -0.054681085 0.53403926 4285099364
-0.059155267 -0.053100005 0.53100008 4284967525
0.079367019 -0.058476489 0.5316 4287863694
0.082598336 -0.053228121 0.53542858 4287206020
-0.062723406 -0.045079555 0.53527111 4284244056
-0.058770493 -0.045242269 0.53172725 4284309594
0.084397383 -0.044304259 0.53465003 4285429106
-0.062015504 -0.035403512 0.53671795 4283585872
-0.057805602 -0.034254286 0.53297734 4283191113
0.084337868 -0.039056871 0.53216672 4286416261
-0.060840849 -0.027212279 0.53885716 4283718227
-0.055983953 -0.024331775 0.53422499 4283914841
0.084259525 -0.024448946 0.53245008 4284639336
-0.053312451 -0.015503076 0.53560656 4283914839
-0.048081569 -0.01383568 0.5321613 4283849304
0.084864751 -0.013222223 0.53390473 4284771691
-0.051471736 -0.0079569193 0.53722221 4283915352
-0.045148093 -0.0050101061 0.53473914 4283914840
-0.038585089 -0.0016865722 0.53192312 4283914584
0.077871673 -0.0033972431 0.53157145 4283783765
0.083627418 -0.005753241 0.53571194 4283586385
-0.042282 0.0036272171 0.53777134 4284046167
-0.035916578 0.0056290771 0.533557 4284177756
-0.029344739 0.0097815786 0.53100002 4284308831
0.057528771 0.0098221051 0.53319997 4281873190
0.063118421 0.0098184207 0.53299999 4282069799
0.074568525 0.0015034114 0.5316667 4282927942
-0.040188596 0.010874561 0.53899997 4284243036
-0.033850696 0.014564754 0.53548723 4284375134
-0.027886819 0.016222628 0.53191173 4284374876
0.048287805 0.018114114 0.53445458 4283454538
0.055926889 0.015733579 0.53565466 4282597948
0.063390978 0.01529039 0.53623885 4283388235
-0.032141078 0.022745552 0.53744829 4284440923
-0.026091428 0.02541 0.53354043 4284374615
0.038985308 0.027779603 0.53225005 4282663983
0.045392454 0.025470145 0.53413856 4283190086
0.054983277 0.024904044 0.53575194 4284704608
0.064405851 0.025220281 0.53696805 4285494896
0.070448242 0.02978684 0.53899997 4285100912
-0.023082811 0.033773392 0.53585476 4284111699
-0.017043745 0.03769004 0.53341937 4284045648
0.038111128 0.035151847 0.53252071 4284177749
0.044951219 0.035104863 0.53422958 4284836194
0.054878753 0.035180688 0.53473562 4285033573
0.064758286 0.03513512 0.53683448 4285165935
0.070878059 0.03520263 0.53899997 4285494898
-0.020633332 0.040478945 0.53866667 4284308563
-0.014252082 0.043615621 0.53562498 4284045135
-0.0070433118 0.047225986 0.53327501 4283584322
0.02806158 0.049504388 0.53140002 4283913546
0.035794746 0.045424212 0.53424996 4284440664
0.045335848 0.044982884 0.5373466 4284375128
0.055009276 0.045137212 0.53600866 4285494379
0.06506864 0.04498798 0.53659558 4285757812
0.071338125 0.045772333 0.53887486 4286218877
-0.092186965 0.056442957 0.53724992 4287863460
-0.085678518 0.054311547 0.53410667 4290099907
-0.079949997 0.052832454 0.53299999 4292008171
-0.0030671409 0.052778333 0.53627032 4283649596
0.0049519758 0.055897288 0.53516906 4283254317
0.015483613 0.05658225 0.53486794 4283056677
0.025294924 0.055721167 0.53489536 4283386167
0.032895979 0.053066865 0.53640902 4283782220
0.047129594 0.052521091 0.53745711 4283847498
0.054720644 0.051920857 0.53564566 4284242766
0.065113284 0.053471945 0.53679985 4283848260
0.072264105 0.053237561 0.53873903 4283390545
-0.092671126 0.063054286 0.53488892 4285955721
-0.088779189 0.062478874 0.53190911 4286283907
0.0052008773 0.060046487 0.53899997 4283123256
0.018614562 0.061325084 0.53859997 4283123498
0.023667416 0.060608771 0.53799999 4283319600
-0.093484566 0.097786084 0.5370571 4289839059
-0.085602865 0.097664639 0.53324014 4287997109
-0.079019055 0.098210283 0.53245455 4284243541
-0.10297824 0.10555393 0.53536922 4283384116
-0.095750138 0.10394698 0.53327709 4290627024
-0.085439116 0.10199612 0.5321334 4288457145
-0.079125658 0.10089803 0.53375 4282662951
-0.10162197 0.11291907 0.53214991 4282459393
-0.098439284 0.11205641 0.53107703 4283316236
-0.14205998 0.12849136 0.53615785 4283775245
-0.13522248 0.12761028 0.53571689 4286406951
-0.12509702 0.12767825 0.53445005 4286538799
-0.11523961 0.12784956 0.53508699 4286341160
-0.10478019 0.12758873 0.53422731 4286013736
-0.09470474 0.12820102 0.53537035 4283907341
-0.087480724 0.12781169 0.53433329 4283314691
-0.064537682 0.12942468 0.53459096 4284565010
-0.057968419 0.12965791 0.53533334 4285880607
-0.0076168426 0.12873404 0.53600001 4284237848
-0.14491197 0.13490276 0.53545195 4282593292
-0.13909139 0.13116477 0.53150004 4283314962
-0.094733335 0.13020001 0.53200001 4286409252
-0.084157892 0.13044474 0.53299999 4283380744
-0.063091017 0.13072544 0.53225005 4285091346
-0.054553859 0.13109064 0.53365004 4286209827
-0.044967886 0.13122328 0.53695118 4286736685
-0.034524299 0.13214834 0.53310001 4287000372
-0.025633553 0.13210458 0.53458333 4286539564
-0.015217016 0.13184439 0.53260005 4285749531
-0.005591989 0.13299222 0.53543335 4285421341
0.005595448 0.13377877 0.53497916 4285289751
0.014968914 0.13429552 0.5345 4285421079
0.024787808 0.1350363 0.53468752 4285684252
0.032469038 0.13518822 0.53588891 4285685021
0.045634277 0.13521369 0.53605115 4285881893
0.056134488 0.13518856 0.53477782 4286210601
0.063069336 0.1350273 0.53331828 4286342959
0.076015964 0.13725482 0.53659999 4286869307
0.085287981 0.13660191 0.53600007 4286935613
0.095018707 0.13766444 0.53589654 4287132992
0.10465496 0.13744953 0.53511477 4287461961
0.11547831 0.13791235 0.53474456 4287594060
0.12467092 0.13852298 0.53453118 4287659852
0.13427339 0.13894328 0.53608823 4287528524
0.14016315 0.13921928 0.53799999 4287067715
-0.15111078 0.14247116 0.53857142 4278648849
-0.14632374 0.14289089 0.53462493 4280095495
0.091342099 0.14005789 0.53399998 4287462210
0.10387105 0.14020264 0.53100002 4286936129
0.11924211 0.14066842 0.53100002 4287659593
0.13692841 0.14349756 0.53374517 4285554222
0.14140175 0.14606623 0.53650004 4284040985
0.13849133 0.15157495 0.53277779 4283119890
0.14124873 0.15182225 0.53463632 4282923283
-0.020632457 -0.11179912 0.54699999 4290230964
-0.015915038 -0.11095452 0.54757136 4290099891
-0.0062605268 -0.11028159 0.54900002 4290034862
0.0044938596 -0.11108796 0.54736358 4290100402
0.015877632 -0.11042193 0.54849994 4290034868
-0.041614562 -0.10081492 0.5478 4288981912
-0.034435865 -0.10157575 0.54580766 4284574786
-0.024282312 -0.10424165 0.54560655 4289179036
-0.01510875 -0.10549802 0.54452193 4289574316
-0.005234797 -0.10562688 0.5437535 4289771696
0.0048983106 -0.10705852 0.54285192 4289969331
0.014750364 -0.10724291 0.54251719 4290100660
0.023230704 -0.10588903 0.54049999 4290166452
0.037485775 -0.10521828 0.5439688 4290100918
0.044110432 -0.10357545 0.54499996 4290035382
-0.052164219 -0.091879547 0.546579 4288324505
-0.044545736 -0.094739899 0.54421794 4288916386
-0.035588354 -0.096356727 0.54197025 4286942574
-0.026682265 -0.098504305 0.5402174 4288783756
0.039315794 -0.099947371 0.54000002 4290100398
0.040736847 -0.099947371 0.54000002 4290165941
-0.062073145 -0.083814435 0.54692298 4287336584
-0.056048002 -0.085728377 0.54337299 4288192152
-0.047258522 -0.08889699 0.54028571 4288718753
-0.064376555 -0.074270621 0.542575 4286678653
-0.059210528 -0.079105265 0.54000002 4287534219
0.076845907 -0.073955648 0.54238909 4287995796
0.08103659 -0.072421052 0.54571432 4287666827
-0.070792109 -0.063086845 0.54900002 4285427557
-0.066695362 -0.064587332 0.54214913 4285822574
0.078974389 -0.067787372 0.54040003 4287798162
0.081069306 -0.06706842 0.54300004 4287732880
-0.070563234 -0.054688085 0.54291672 4285098332
-0.067477569 -0.055175819 0.54104376 4285099365
0.087360911 -0.051090229 0.54000002 4285298786
-0.07078854 -0.04397181 0.54600006 4284374616
-0.067706317 -0.044734027 0.54252642 4284309081
0.086641155 -0.047928236 0.54000002 4285691495
-0.070873335 -0.036774911 0.5474 4284046422
-0.067185968 -0.034679793 0.54448277 4283586386
-0.064784467 -0.025036097 0.54401273 4283915096
0.08850316 -0.023362108 0.54000002 4284771435
0.090949267 -0.024388595 0.54017645 4284705387
-0.072673157 -0.011949719 0.54835999 4286545009
-0.064044125 -0.014980691 0.54649991 4284901475
-0.057946969 -0.013580772 0.54192114 4284177497
0.08835528 -0.016222933 0.54049999 4285100655
0.090919472 -0.016885791 0.5438 4285297524
-0.072506875 -0.0084587038 0.54738456 4281808415
-0.064526826 -0.0055688648 0.54751974 4283386943
-0.05592946 -0.0044574663 0.54435223 4284507484
-0.049195491 -0.0014210528 0.54000002 4283915099
0.088484213 -0.0067736851 0.54000002 4283783506
-0.061585966 0.0016845032 0.5485 4283256643
-0.054023486 0.0032635382 0.54660004 4283585097
-0.046206027 0.0057326849 0.5421232 4284046425
0.069447368 0.0067052636 0.546 4282071340
0.074909866 0.0067268782 0.54694349 4282071339
-0.04389327 0.014416665 0.5456388 4284506974
-0.038401242 0.016871257 0.54104543 4284637793
0.073084444 0.011284689 0.54845452 4282269493
-0.042133085 0.023468671 0.54757148 4284835426
-0.036204446 0.025680667 0.54293257 4284637787
-0.033556376 0.034309089 0.54559988 4284440406
-0.027306318 0.036370218 0.54167449 4284308819
0.069631584 0.035526317 0.54000002 4285363057
0.071822368 0.035052631 0.54000002 4285231728
-0.030744363 0.042161904 0.54885715 4284571480
-0.024463525 0.044539541 0.54504871 4284440149
-0.016474217 0.047472559 0.54060531 4284308049
0.039315794 0.049263157 0.54000002 4284110921
0.041526318 0.049105264 0.54000002 4284966750
0.072663166 0.045821059 0.54000002 4286218626
-0.1010579 0.054121055 0.546 4290165708
-0.096728645 0.054764509 0.54230624 4288717739
-0.022064777 0.05140648 0.54769224 4284374355
-0.01462762 0.054502439 0.54545987 4284175948
-0.0061332481 0.056333989 0.54312915 4283847238
0.0012331579 0.058897369 0.5406 4283583795
0.01231579 0.059210528 0.54000002 4282859040
0.029842105 0.059210528 0.54000002 4283649602
0.036632836 0.056235965 0.54082173 4284177234
0.04368563 0.056010906 0.54139459 4284441180
0.055030379 0.057782657 0.54619986 4282071863
0.065877639 0.058030266 0.54449999 4280754966
0.072276309 0.056250006 0.54000002 4283387718
-0.096989475 0.060856141 0.542 4286086797
-0.011624061 0.060456891 0.54885715 4283978825
-0.0044230269 0.061539084 0.54764998 4283781179
0.0054166 0.063106596 0.54525936 4283517494
0.014780609 0.065122701 0.54389483 4283584057
0.025250057 0.06523671 0.54321718 4283781956
0.034990676 0.064881667 0.54286647 4284506194
0.044917248 0.064982265 0.54468977 4284506710
0.054712668 0.065268166 0.54709047 4284046160
0.061273035 0.064359061 0.5487352 4283716942
0.017189812 0.071097232 0.54792303 4283978311
0.025323074 0.072177991 0.54709285 4283912768
0.034976352 0.07235118 0.54621804 4283583539
0.044421621 0.071630716 0.54519445 4283320887
0.052982189 0.071196221 0.54656249 4282728242
0.060197368 0.070792109 0.54900002 4281412352
-0.10089474 0.099947371 0.54000002 4278190080
-0.09876316 0.099000014 0.54000002 4284639867
-0.10136843 0.10089474 0.54000002 4284889929
-0.099000007 0.10089474 0.54000002 4288783286
-0.15174235 0.12589833 0.54617238 4283183888
-0.14534724 0.12471826 0.54389691 4285354525
-0.13490173 0.12406676 0.54377955 4286736174
-0.12491479 0.12449051 0.54400003 4286275108
-0.1153237 0.12465711 0.54474676 4286012191
-0.10494926 0.12505925 0.54443949 4284829205
-0.096402906 0.12495048 0.54294121 4283315203
-0.06510777 0.12765455 0.54462498 4285223449
-0.055397689 0.12819253 0.54337251 4286736170
-0.04524355 0.12826163 0.54081595 4286605358
-0.035268214 0.12940627 0.54623073 4285750817
-0.026742395 0.12896687 0.54655552 4284829723
-0.017818421 0.12906316 0.54900002 4284238103
0.032747369 0.12906316 0.54900002 4284172562
-0.1533948 0.13569798 0.54408777 4281345296
-0.14892633 0.13253686 0.54000002 4282527241
-0.052578948 0.13026316 0.54000002 4286472741
-0.04689474 0.13045263 0.54000002 4286670381
-0.034570511 0.13168637 0.54458338 4286407976
-0.024678897 0.1310197 0.54339391 4285553442
-0.01541772 0.13265315 0.54563987 4285092634
-0.0019741228 0.13250421 0.54392856 4284435223
0.0036513153 0.13240632 0.54180002 4284500756
0.016258275 0.13297416 0.54419053 4284500757
0.025147237 0.13281463 0.54369253 4284631827
0.035085525 0.13359861 0.54554939 4284894998
0.04399953 0.13380487 0.54178137 4285289754
0.054638203 0.13298249 0.54527003 4285487134
0.065375783 0.133435 0.54493064 4286079530
0.07467784 0.13423425 0.54344577 4286474549
0.084180832 0.13333651 0.54383624 4286738234
0.095141448 0.13478974 0.54300016 4287067459
0.1050507 0.13492572 0.54470003 4287330375
0.11464763 0.13536073 0.54163659 4287462473
0.12488653 0.13617161 0.54357159 4287594061
0.13525745 0.13638468 0.54475725 4287659597
0.14380275 0.13727637 0.54611772 4287330888
0.15045963 0.1398842 0.54799998 4284501274
-0.15358366 0.14098279 0.54162496 4278845970
0.14649394 0.1445621 0.54396719 4284041243
0.15153001 0.14651109 0.54864281 4283448852
0.14645767 0.15478331 0.54231399 4282463760
0.1520602 0.15241714 0.54712498 4282529549
-0.033639256 -0.11190489 0.55708337 4288255867
-0.025794407 -0.11273209 0.55659992 4289573026
-0.011390702 -0.11373772 0.55486667 4290231734
-0.0064439112 -0.11452424 0.5550909 4289835944
0.0052334615 -0.11525173 0.55482942 4290231984
0.015202454 -0.11424848 0.55366695 4290100660
0.021648787 -0.11264811 0.55223078 4290297784
-0.051211528 -0.10151579 0.55599993 4286151280
-0.044802889 -0.10411101 0.55482358 4288520596
-0.035142973 -0.10701454 0.55461115 4289574311
-0.02697885 -0.10817144 0.55133331 4289706156
0.020745615 -0.10951755 0.55000001 4290231730
-0.061644152 -0.091251753 0.55333328 4285163087
-0.055431701 -0.095060222 0.55244231 4286941052
-0.04916871 -0.098499715 0.55133331 4288521627
-0.063535392 -0.087606914 0.55141181 4285360733
-0.073789626 -0.062877484 0.5529412 4285425238
-0.069956139 -0.067061409 0.55000001 4285362021
-0.075077586 -0.054873839 0.55468619 4285293651
-0.073941141 -0.045918085 0.55272216 4284965974
-0.073271856 -0.035120007 0.55213904 4284637523
-0.071487881 -0.026965408 0.55018759 4284308823
-0.069127522 -0.023645287 0.550125 4284111707
-0.076512009 -0.012385527 0.55077273 4285554742
-0.066109374 -0.013596268 0.55210716 4284771177
0.091833331 -0.014983333 0.551 4285363831
-0.073685221 -0.0046591093 0.55656409 4282795321
-0.068476312 -0.0020351391 0.5564118 4283585871
0.087815158 -0.0010157896 0.55363631 4282400563
0.092792846 -0.0024711259 0.55408329 4282992965
-0.070610523 0.00049035088 0.55900002 4283915604
-0.062871926 0.0042080339 0.55326319 4281413407
-0.05657696 0.007318038 0.55220509 4282400564
0.06971813 0.0088561401 0.55066663 4282005293
0.078384869 0.0056752195 0.55075002 4282334254
0.08517652 0.0049223439 0.55284268 4282400563
0.091863461 0.0045751818 0.55652946 4283322699
-0.060205266 0.011257895 0.55800003 4283190094
-0.054555502 0.014960777 0.55456859 4283980370
-0.048237808 0.01641424 0.55136663 4284769630
0.069238208 0.013832292 0.55293751 4283519823
0.075401254 0.015509328 0.55463618 4283059271
0.083772011 0.012405496 0.55560005 4282466355
0.091409869 0.010537939 0.55875003 4282991679
-0.053403903 0.023944169 0.55625409 4284769633
-0.046271663 0.025914246 0.55295163 4284572251
0.074529611 0.021571999 0.55786479 4284442469
-0.043403566 0.033649661 0.55589098 4284505685
-0.037638627 0.036797982 0.55290008 4284374610
-0.034133364 0.044256456 0.55418181 4284505941
-0.028185381 0.048477896 0.55080009 4284637013
-0.11078421 0.056453805 0.55800003 4287864236
-0.10597865 0.057031102 0.55515409 4287600293
-0.03109544 0.050978601 0.55559999 4284703577
-0.025062161 0.055172302 0.55339724 4284374095
-0.018556274 0.058343731 0.55107695 4284241993
0.066942096 0.059665788 0.55299997 4280883480
-0.11023027 0.060749561 0.55850005 4286022276
-0.10404687 0.063263446 0.55495465 4286284689
-0.0969126 0.068521746 0.55121434 4286087822
-0.022239266 0.063153997 0.55739999 4284175943
-0.014665024 0.064736038 0.5537262 4283978816
-0.0049953549 0.066349804 0.55284494 4283715387
0.0040744366 0.067797244 0.55148566 4283781180
0.011096491 0.069473684 0.55000001 4283847487
0.065953635 0.064737953 0.55288684 4283321670
0.071429566 0.06270659 0.55849999 4282928194
-0.10152632 0.071215205 0.55733335 4286482327
-0.094778925 0.074532233 0.55225742 4286285204
-0.011265204 0.071016081 0.55833334 4283715640
-0.0044441968 0.071850523 0.55807692 4283715900
0.0057975836 0.073754326 0.5559845 4284044358
0.014606928 0.075677171 0.55362505 4284044354
0.024863755 0.0771676 0.55251074 4283714870
0.035115674 0.078019097 0.55587494 4283451440
0.045109246 0.077996299 0.55815226 4282925355
0.050833046 0.07878305 0.55900002 4283649598
0.063316666 0.070083328 0.551 4283715899
-0.10195877 0.089362279 0.55842865 4288193985
-0.097223401 0.085866384 0.55883336 4287404203
0.009316667 0.080907896 0.55900002 4284110405
0.015804783 0.081832312 0.55739391 4283847229
0.02525896 0.082599923 0.55729407 4284044097
0.034907307 0.082832418 0.55770588 4284242253
0.045040358 0.08273606 0.5581001 4284111174
0.050802927 0.082003504 0.55866671 4284177739
-0.12288849 0.098497346 0.55688 4291285990
-0.11442521 0.096620098 0.55558449 4291022818
-0.10461855 0.094412461 0.55541235 4289904852
-0.098096356 0.094155394 0.55284619 4289115337
-0.1323158 0.10242194 0.55866671 4289509574
-0.12604067 0.10270295 0.55712771 4287007375
-0.1168967 0.1010187 0.55223078 4289575618
-0.15331239 0.11907896 0.5575 4286144043
-0.14515734 0.11862167 0.55706066 4286670380
-0.13540421 0.11926914 0.55745453 4286276391
-0.1280693 0.1192704 0.55724996 4284368661
-0.16167614 0.12679523 0.55655992 4282529302
-0.15613483 0.12396901 0.554371 4283382291
-0.14456306 0.12083763 0.55309677 4286736432
-0.13514501 0.12128256 0.55323088 4286472998
-0.12507977 0.12086967 0.55257899 4285486619
-0.11446381 0.12134053 0.55225641 4284105228
-0.10603083 0.12207232 0.55225003 4284236809
-0.071158335 0.12566857 0.55816668 4284174397
-0.065396458 0.12526174 0.55438232 4285026067
-0.055961892 0.12616462 0.5545001 4285947682
-0.041214738 0.12912352 0.55799997 4285158419
-0.035228614 0.12735301 0.55472738 4284171535
-0.026885323 0.1287885 0.55739999 4284106258
-0.012700001 0.12996492 0.55700004 4283974922
-0.004177778 0.12933263 0.55386662 4283843082
0.0052162283 0.12947647 0.55699998 4283974412
0.013442398 0.12927239 0.55716664 4284040464
0.027507894 0.12892224 0.55183333 4284106257
0.033381842 0.12921518 0.55130005 4284172560
0.045062277 0.12912326 0.55515391 4284435222
0.0523629 0.1293411 0.55342859 4284697884
0.061452627 0.12973246 0.55599999 4284895780
0.087023035 0.12977831 0.55725002 4286540347
0.095058598 0.12985002 0.55860007 4286803774
0.10250843 0.12945774 0.55860007 4287001666
-0.16196038 0.13301615 0.55568415 4280425226
-0.15828721 0.13395724 0.55146432 4281411087
-0.04173319 0.13089752 0.5575 4286080289
-0.037353005 0.13040289 0.55500001 4285619996
-0.021092981 0.13025965 0.55066669 4284500761
-0.013998101 0.13105462 0.55472225 4284172051
-0.0041607078 0.13147679 0.55237919 4284040463
0.0053267735 0.1320232 0.55360001 4284040205
0.013778838 0.13209145 0.55508333 4284040462
0.024717186 0.1314752 0.55277777 4284171789
0.037730854 0.1313511 0.55352932 4284435221
0.044785246 0.13242695 0.55257905 4284764182
0.054852579 0.13088334 0.55140007 4285092894
0.064656205 0.13134189 0.55234784 4285618984
0.07554704 0.13161469 0.5551852 4286145843
0.085959829 0.13140367 0.55360001 4286540600
0.09487205 0.13212466 0.5538196 4286804290
0.10509603 0.13212664 0.55413806 4287199303
0.11516956 0.13332166 0.55419987 4287396424
0.12503788 0.13287103 0.55539441 4287462473
0.13452339 0.13260864 0.55377793 4287462219
0.14541149 0.1339539 0.55358493 4287528266
0.15316163 0.13667853 0.55524993 4286409528
-0.15921053 0.14039473 0.55000001 4278453002
0.15421747 0.14533536 0.55202377 4283318037
0.15583335 0.15100877 0.55000001 4282463503
-0.043037768 -0.11192998 0.56183332 4285492570
-0.038682707 -0.11224736 0.56228572 4285819986
-0.027719302 -0.11459649 0.56 4288386687
-0.011125615 -0.11804912 0.56120002 4286743403
-0.0074752634 -0.11880825 0.56059992 4283522129
-0.051179383 -0.10481842 0.56099999 4285228374
-0.044643488 -0.10879975 0.56014282 4285886806
-0.083144858 -0.003999948 0.56358808 4286144040
-0.077461801 -0.0037159605 0.56086123 4282861114
-0.082870632 0.0048652273 0.56555998 4286275622
-0.075114682 0.0051005804 0.56358004 4284110924
-0.067574136 0.0042434083 0.56306058 4282794554
0.093608774 0.0067216377 0.56066662 4283717460
-0.08199431 0.013621215 0.56574064 4287393839
-0.075079791 0.014811346 0.56540346 4285097036
-0.068632178 0.017557951 0.56593752 4283980371
0.085908994 0.016727068 0.56275618 4282598198
0.09065672 0.012952046 0.56066668 4282004531
-0.08026462 0.021437719 0.56833339 4287722293
-0.074273609 0.02352475 0.56624603 4285949757
-0.065547608 0.025059797 0.5642038 4284704347
-0.057452373 0.027228704 0.56442428 4284638557
0.076028682 0.026487483 0.56222218 4284902761
0.083128184 0.023352191 0.56565791 4283585869
-0.070872806 0.030232456 0.565 4278851078
-0.064285949 0.033894897 0.56519979 4284242241
-0.055355389 0.034789015 0.56561452 4284177227
-0.046970762 0.036796656 0.56170279 4284440404
0.07722792 0.032379624 0.56323063 4284836199
0.080645174 0.030366227 0.5675 4284901993
-0.060548533 0.04064269 0.56733328 4288316495
-0.054213405 0.041145373 0.56816661 4284899387
-0.044550482 0.043942992 0.56603003 4284637525
-0.037689265 0.046725616 0.56208003 4284505426
-0.1202886 0.056899995 0.56900001 4289903317
-0.11595654 0.056683257 0.56569064 4288258731
-0.03414591 0.054684695 0.56431663 4284571218
-0.028517107 0.058262937 0.56049997 4284439627
-0.1138031 0.064076461 0.56687808 4286153616
-0.10663864 0.067706376 0.56396538 4286350997
-0.032120988 0.062929168 0.56718516 4284373583
-0.025716934 0.065665677 0.56279671 4283979075
-0.017927693 0.068965286 0.56099999 4283978042
0.06926316 0.060912281 0.56 4281409820
0.073013596 0.062564693 0.56049997 4283323467
-0.11098807 0.071099654 0.56840003 4286416790
-0.10515511 0.075343125 0.56491315 4286614430
-0.099565543 0.076940477 0.56071424 4286351258
-0.022602733 0.072583161 0.56673074 4283847489
-0.014850015 0.075006202 0.56437027 4283781182
-0.0051236562 0.076759651 0.56259382 4283846455
0.0027616734 0.077667467 0.5609231 4284110149
0.048525143 0.075574853 0.56066662 4282135327
0.055763196 0.077409521 0.56418747 4282004513
0.063267894 0.076951519 0.56745011 4282136359
-0.12403423 0.088001207 0.56800002 4290693852
-0.11445712 0.086565115 0.56623948 4290036440
-0.10514853 0.085001655 0.56412488 4288062904
-0.097535506 0.084582955 0.56051445 4287338924
-0.013232591 0.081039198 0.56838459 4283912510
-0.0041406937 0.083230279 0.56627458 4283780662
0.0050231749 0.084744141 0.56423849 4283978558
0.014336769 0.086777374 0.56232208 4284044352
0.024728375 0.0874862 0.56129545 4284241993
0.035452746 0.087510072 0.56092507 4284176459
0.044967107 0.087954745 0.56328946 4283847492
0.055505309 0.084944688 0.56461728 4283913022
0.062707439 0.083142348 0.56603217 4284110917
-0.14251359 0.098770127 0.56817651 4290496735
-0.13405783 0.096133359 0.56560969 4290759647
-0.12544572 0.094059475 0.56391966 4290562782
-0.11571218 0.091916732 0.56143594 4290496733
-0.1087178 0.091121837 0.56029999 4289971166
0.0075994325 0.093573213 0.56864715 4282924583
0.015605721 0.093601145 0.56703466 4284044093
0.024912152 0.094904609 0.56515926 4284307783
0.034675308 0.095116094 0.5647096 4284571217
0.044379894 0.094593681 0.56613261 4284571474
0.051537838 0.092075497 0.56820005 4284373320
-0.15371196 0.106111 0.56690329 4290101971
-0.14504574 0.1040503 0.56427491 4289641422
-0.13689181 0.10235923 0.56084371 4290101972
0.0067507424 0.10288021 0.56743604 4278190080
0.010463159 0.10114386 0.56800002 4279304960
0.025997924 0.10236426 0.56849998 4283450147
0.034853246 0.10322514 0.56826019 4283977522
0.041307896 0.10164913 0.56850004 4284176450
-0.16387434 0.11811634 0.5661 4283252002
-0.15586738 0.1163249 0.56418008 4285949246
-0.14429319 0.11716665 0.56497139 4284302611
-0.13488328 0.11771709 0.56516665 4283117317
-0.12481485 0.11814468 0.56643903 4282853632
-0.11532907 0.11820389 0.56560791 4282590976
-0.10953626 0.11842983 0.56333333 4282525440
-0.16423103 0.1220299 0.56376922 4282464034
-0.15964912 0.12035087 0.56 4283251480
-0.12364885 0.12038043 0.56261545 4282787586
-0.11439731 0.12083829 0.56199992 4282854146
-0.10973947 0.12056578 0.56099999 4282919941
-0.081157982 0.12293166 0.56830001 4281613912
-0.07468871 0.12336873 0.56493658 4283054372
-0.064217202 0.12388454 0.5659166 4283842315
-0.054250643 0.12536989 0.56549025 4284039437
-0.045483172 0.12667322 0.56320584 4284039179
-0.033095174 0.12723577 0.56564289 4283513096
-0.024381429 0.12704718 0.56493449 4283711240
-0.015283194 0.12776683 0.56487757 4283908364
-0.0051941294 0.12855719 0.56474352 4283908874
0.0052679628 0.12826477 0.56706822 4283843084
0.014665816 0.1282123 0.56718916 4283776777
0.024639562 0.12863748 0.56519055 4283842569
0.035174791 0.12882178 0.56718528 4283909135
0.044389859 0.12870266 0.5677942 4284237844
0.055940896 0.12873255 0.56648278 4284566559
0.065454371 0.12815447 0.56641185 4285027363
0.07516852 0.12841086 0.5653125 4285881899
0.084986337 0.12867296 0.5662632 4286277171
0.094712675 0.12846813 0.56406516 4286540601
0.10632559 0.12812293 0.56433326 4286935618
0.11432518 0.12844089 0.56535715 4287133765
0.12469395 0.12857886 0.56560421 4287462218
0.13447739 0.1290819 0.56535292 4287659597
0.14487171 0.1292043 0.56661904 4287725391
0.15194945 0.12912555 0.56562501 4287659856
-0.16671021 0.13371283 0.56104356 4278190089
-0.05157895 0.13017543 0.56 4286672427
-0.047070567 0.13016218 0.56088889 4286080035
-0.023006458 0.13097073 0.56227267 4284172054
-0.015451404 0.13077047 0.56313336 4284040720
-0.0054218322 0.1308963 0.56311107 4283908872
0.003557656 0.13070373 0.565 4283908623
0.014621052 0.13045403 0.56720001 4283909133
0.024683971 0.13084304 0.56445456 4283974666
0.034868255 0.13066925 0.56457138 4284040715
0.045518421 0.13006052 0.56700003 4284369175
0.055470321 0.13115446 0.56436664 4284697885
0.065723568 0.13105939 0.56380951 4285290019
0.074386097 0.13081869 0.56121057 4285948207
0.083486505 0.13064063 0.56178945 4286211893
0.10816754 0.13029166 0.56050003 4286935871
0.11593566 0.13080688 0.56145006 4287265091
0.12443923 0.13025455 0.56072724 4287462729
0.13561241 0.13062243 0.56071419 4287725391
0.14561738 0.1314968 0.56380552 4287725392
0.15551868 0.132825 0.56339681 4287199303
0.16230224 0.13508074 0.56671435 4285291562
0.15874034 0.14099297 0.56199998 4283779359
-0.070500001 0.0094999997 0.56999999 4282992199
-0.066213541 0.0086082881 0.57055008 4282399796
-0.070500001 0.011 0.56999999 4283190091
-0.065091759 0.014944541 0.57351863 4283716941
-0.063048244 0.021016082 0.57499999 4284573538
0.08705201 0.026816312 0.57459998 4283980632
0.090782315 0.025865644 0.57816666 4283980373
0.084272563 0.034044467 0.57586968 4284374873
-0.053571422 0.045120247 0.57397497 4287002694
-0.046689175 0.048474602 0.57173914 4284834648
-0.13093525 0.058611047 0.579 4287000122
-0.12492162 0.057149466 0.57467437 4287531131
-0.11930584 0.05289473 0.57066667 4287724886
-0.0517 0.050797466 0.57844448 4286412117
-0.044073153 0.054307781 0.57488698 4284703315
-0.03826268 0.057027914 0.57254547 4284505416
-0.13052894 0.060439475 0.579 4286541884
-0.1241509 0.064312011 0.57594544 4285890446
-0.11748441 0.066436142 0.5716452 4286219154
-0.040596493 0.061402634 0.57850003 4284309065
-0.035284337 0.064786099 0.57408828 4284374092
-0.029251754 0.069369309 0.57166666 4284045391
-0.12148028 0.075024374 0.57839137 4286680478
-0.11531813 0.075510584 0.57423401 4286811807
-0.10956404 0.07854531 0.5703333 4287207080
-0.031896546 0.072312579 0.57593334 4284308816
-0.026027557 0.076087251 0.57454377 4284044359
-0.018758552 0.079284862 0.57024997 4283978811
0.058503509 0.074383341 0.57166672 4282926647
0.060606137 0.0746307 0.57099998 4282201611
-0.14199682 0.089254059 0.578125 4290693596
-0.13398185 0.0872683 0.57536536 4290562523
-0.12483705 0.083988518 0.57467794 4290365660
-0.11617616 0.082101323 0.57208335 4288392128
-0.023043664 0.082620665 0.57703704 4283649850
-0.01529885 0.085633717 0.57404208 4283715124
-0.0059650186 0.087941781 0.57327276 4283715122
0.0010017543 0.089657016 0.57099998 4283649325
0.056499995 0.089500003 0.56999999 4283583044
-0.16337496 0.099387884 0.57727277 4285950275
-0.15358537 0.098422118 0.57750005 4291022561
-0.1449571 0.094839059 0.57421738 4290693853
-0.13733014 0.092102289 0.57184613 4290562524
-0.015155678 0.092134535 0.57894748 4282660643
-0.0039235465 0.092446074 0.57628131 4283320356
0.0048027332 0.094895311 0.57314754 4283384866
0.013874195 0.098161414 0.57083869 4283384347
0.048780698 0.098730706 0.57133335 4284637011
0.055421554 0.095218085 0.57276189 4284505416
-0.17126057 0.10464937 0.57238108 4278255877
-0.16476195 0.10498495 0.57220358 4284636236
-0.15676193 0.10233414 0.57294279 4290890975
-0.14913113 0.10058816 0.57050002 4290693340
0.0078223683 0.10029079 0.57599998 4280553988
0.016327068 0.10260411 0.57275003 4279766788
0.023993239 0.10491969 0.57113153 4280161543
0.03602951 0.10673641 0.57050002 4281211657
0.045347884 0.10418122 0.57200003 4283450925
0.053761184 0.10263094 0.57685286 4283845680
-0.16470201 0.11386985 0.57142097 4283778856
-0.15441354 0.11424622 0.57226557 4282660384
-0.1455799 0.11425383 0.57460344 4281408517
-0.13484293 0.11486756 0.57338774 4281736192
-0.12532015 0.11480276 0.57450002 4281538816
-0.11692778 0.11483652 0.57385713 4281538304
-0.08433608 0.11816787 0.57487875 4281279518
-0.076230973 0.11979751 0.57438463 4281210368
-0.084273219 0.12136567 0.57212502 4282797666
-0.074223779 0.12069894 0.57321054 4281802240
-0.065964326 0.12101638 0.57373333 4282526212
-0.054754756 0.12293753 0.57419997 4282460673
-0.044422142 0.12377103 0.5771699 4282262784
-0.035439435 0.12565495 0.57637501 4282854913
-0.029603509 0.12594035 0.57200003 4283380994
-0.012667362 0.12703118 0.57754165 4283513094
-0.0096124997 0.12749013 0.57675004 4283579909
0.0035302229 0.12732129 0.57536364 4283382275
0.018393116 0.12773563 0.57384616 4283513348
0.023617119 0.12814565 0.57442415 4283513606
0.035514913 0.12764163 0.57543749 4283777037
0.046124671 0.12688732 0.57404166 4284238104
0.053368036 0.12713555 0.57331252 4284566561
0.065349549 0.12585783 0.57328004 4284961574
0.075125016 0.12541644 0.57383335 4285487913
0.085761011 0.12624985 0.57239997 4286014000
0.095107704 0.12538718 0.57417721 4286408756
0.10420997 0.12605639 0.57255346 4286869822
0.11630859 0.1265917 0.57415152 4287264839
0.1250454 0.12661956 0.57564706 4287396423
0.13515864 0.12709183 0.57467389 4287593802
0.14463298 0.12774035 0.57410246 4287725387
0.15505216 0.12777868 0.57682443 4287593803
0.16198403 0.12847351 0.57646668 4287462219
0.024499999 0.1305 0.56999999 4284039438
0.15876117 0.13037522 0.57274997 4287594065
0.16415468 0.13322954 0.57316667 4286146616
0.16556683 0.14164157 0.57300001 4283450397
0.09194199 0.023283919 0.58122218 4283585874
-0.13075438 0.056473684 0.57999998 4283513600
-0.052694265 0.055025455 0.58197218 4286609755
-0.048051409 0.057754919 0.58205551 4284966750
-0.13385504 0.066330731 0.58590472 4286941838
-0.12814911 0.066821925 0.58100003 4285890703
-0.050817542 0.064243361 0.58857149 4285493340
-0.045043681 0.065004945 0.58462834 4284637521
-0.038006302 0.067277469 0.58156246 4284570959
-0.13406266 0.075342707 0.5872969 4287733940
-0.12653773 0.075204693 0.58255923 4286549151
-0.04238414 0.073444232 0.5887143 4284044869
-0.036037475 0.075526454 0.58580881 4284307787
-0.028999997 0.07987719 0.57999998 4283913281
-0.16346991 0.089239337 0.58999997 4286608717
-0.15354308 0.088881373 0.58770597 4291812077
-0.1446806 0.086728051 0.58446658 4290693855
-0.13553645 0.082843795 0.58287495 4290168024
-0.12804401 0.081141226 0.58116668 4288918993
-0.033077132 0.082622513 0.58761293 4283715389
-0.025853163 0.085983805 0.5825581 4283320113
-0.01985921 0.088603064 0.58050001 4282859556
-0.16344218 0.094744898 0.58579111 4286741860
-0.15571046 0.093738705 0.58345604 4291746541
-0.14777769 0.091095395 0.58124995 4291022817
-0.021529825 0.090912625 0.58160001 4282793262
-0.01491187 0.093264528 0.58053577 4282396693
-0.0056459857 0.096674688 0.5824222 4282397452
0.0015276315 0.098787278 0.58049995 4281872400
0.059577629 0.098787278 0.58050001 4284175415
0.062319212 0.095326521 0.58093542 4284374088
-0.14119941 0.1093649 0.58533335 4287009180
-0.13780351 0.10911579 0.58399999 4285559411
-0.12463658 0.10946833 0.58809996 4282925108
-0.0024684211 0.10122855 0.5836364 4278780928
0.0026074564 0.10185103 0.58183336 4278649344
0.059180874 0.10155384 0.58059996 4283976232
0.060903069 0.10167499 0.58099997 4283910434
-0.14291002 0.11166937 0.58308339 4280886040
-0.13521695 0.11226582 0.58363414 4280092672
-0.12463702 0.11171951 0.58384991 4279633410
-0.11892962 0.11190116 0.58133328 4279632896
-0.082919061 0.11732403 0.5855 4280355072
-0.074899316 0.11799461 0.58464915 4280947200
-0.065546833 0.11858201 0.58815002 4281342464
-0.057891551 0.11920288 0.58781815 4281341696
-0.047543567 0.11963129 0.58700001 4281341184
0.09493421 0.11956578 0.58499998 4286211123
-0.073342688 0.12031287 0.58200002 4281539584
-0.063509569 0.12113438 0.5844 4281999872
-0.054591283 0.12152089 0.58486664 4281670912
-0.045449857 0.12214516 0.58207697 4281736448
-0.033238783 0.12381641 0.58444107 4282131712
-0.025024839 0.12427656 0.58178949 4282526208
-0.016325524 0.12498162 0.58239996 4282789376
-0.0050064428 0.12665141 0.58155251 4283184131
0.0049023773 0.12682676 0.58277428 4283118081
0.015232833 0.12704001 0.58557141 4282855425
0.026461102 0.12679176 0.58358616 4283052547
0.034293711 0.12591988 0.58525002 4283184131
0.043499459 0.12635814 0.58462161 4283843340
0.05569141 0.12539904 0.58557391 4284567076
0.064218022 0.1250098 0.5827105 4284764454
0.075853802 0.12385202 0.58718914 4285421612
0.084937796 0.12436555 0.58514279 4285882159
0.094757199 0.12264635 0.58502865 4286145842
0.1054413 0.12309524 0.58589995 4286672442
0.11497921 0.12351853 0.58528173 4287067203
0.12506297 0.12342093 0.58578789 4287330373
0.13511574 0.12410213 0.5849635 4287396426
0.14474815 0.1242531 0.58442432 4287725133
0.1546068 0.12447704 0.58546513 4287856719
0.16535915 0.12593096 0.58678699 4287659597
0.17217994 0.12718554 0.58831817 4286606645
0.16863711 0.13121872 0.58433336 4286935087
0.17170314 0.13096175 0.58640003 4285554200
-0.14231907 0.068739101 0.59428579 4286606662
-0.13914898 0.068105407 0.59116668 4287202937
-0.052916057 0.068765186 0.59630769 4285230689
-0.04873158 0.069468424 0.59100002 4284505940
-0.15117964 0.079207718 0.59799999 4290956255
-0.14470521 0.075375028 0.59546071 4288916145
-0.1391577 0.074627869 0.59176922 4288720319
-0.052548584 0.073318765 0.59732145 4284769112
-0.046501689 0.075813033 0.59291983 4283847494
-0.16185772 0.086475119 0.59263623 4285885515
-0.15535992 0.084904999 0.5955137 4291022559
-0.1456497 0.082713202 0.59231693 4289904600
-0.13945527 0.080355264 0.59100002 4289444306
-0.04329519 0.084049962 0.59633327 4283518269
-0.036311742 0.086073875 0.59289777 4283583546
-0.029221052 0.08939182 0.59133339 4283320884
-0.034024831 0.092546821 0.59727257 4283254319
-0.025540503 0.095590174 0.59731734 4283255352
-0.019441226 0.098257013 0.59899998 4283650102
-0.12484211 0.10871667 0.59299999 4289904841
-0.025615131 0.10206644 0.59899998 4281675805
-0.083704099 0.11466072 0.59417504 4280290048
-0.076315388 0.11524204 0.59578788 4280092416
-0.062999062 0.11752754 0.59507698 4280816384
-0.054856926 0.11917263 0.59436846 4281472512
-0.044828512 0.11994079 0.59450001 4281275648
-0.037658554 0.11977303 0.59625006 4281407232
0.085921384 0.11944979 0.59725004 4285750320
0.090749122 0.11959912 0.59799999 4285947702
0.10445043 0.11936507 0.59683329 4286474550
0.11244385 0.11927456 0.59899998 4286672189
0.12582338 0.11913054 0.59691304 4287461958
0.13444528 0.11922684 0.59710526 4287593803
0.14139473 0.11992368 0.597 4287921740
0.15920001 0.11992368 0.597 4287725130
-0.053018771 0.12066579 0.59140003 4281408000
-0.043519199 0.1215669 0.59657693 4281341440
-0.035156075 0.12186607 0.59486115 4281473536
-0.024852112 0.1226135 0.59640628 4281671680
-0.014696044 0.12317234 0.59568304 4282000128
-0.0058852904 0.1239978 0.59620494 4282197504
0.0057085962 0.12408546 0.59468561 4282263040
0.014967348 0.12415718 0.59573996 4282197248
0.025153911 0.12392011 0.59498507 4282000384
0.035225987 0.12337025 0.59396553 4282197504
0.045408092 0.12387367 0.59477991 4283119369
0.054743275 0.1226463 0.59606057 4284172575
0.064682879 0.12258545 0.59435546 4284698662
0.074414849 0.12245104 0.59603024 4285289515
0.085049123 0.12156011 0.59367561 4285685038
0.094508722 0.12157152 0.5956316 4286014003
0.10475866 0.12069082 0.59295994 4286474808
0.11529358 0.12065652 0.59591305 4286804031
0.12492741 0.12044431 0.59312499 4287198782
0.13485846 0.12126994 0.59266663 4287724873
0.14590122 0.12132152 0.59493548 4287790413
0.15539566 0.12175791 0.59447497 4287725136
0.16515535 0.12185995 0.59423679 4287659599
0.17243652 0.12270541 0.59373921 4287593805
-0.054865599 0.067396007 0.60077775 4285559400
-0.15334289 0.077229612 0.60088003 4287595374
-0.14894737 0.071052633 0.60000002 4286934595
-0.052338302 0.077807315 0.60066664 4284439632
-0.16079387 0.081714913 0.60100001 4287197770
-0.15786868 0.081198163 0.60029995 4286874988
-0.051312141 0.084165134 0.60500002 4283782215
-0.047072954 0.086754702 0.60156673 4283452738
-0.050708331 0.090741664 0.6085 4283386168
-0.04492268 0.09503378 0.60549343 4282267169
-0.036120445 0.097115494 0.60126096 4282727970
-0.028736841 0.098842107 0.60000002 4283189809
-0.016088791 0.099411994 0.60033333 4282991659
-0.04281798 0.10149188 0.60537499 4278452992
-0.035001431 0.1032778 0.60292172 4279175939
-0.024605881 0.10275579 0.60012919 4281083671
-0.014233692 0.10372642 0.60114926 4280952342
-0.0086538009 0.10519591 0.60399997 4279373315
-0.074348204 0.11431575 0.60231823 4280226571
-0.065712743 0.11622602 0.60589135 4280355585
-0.054968238 0.11763215 0.60511911 4281145088
-0.044938643 0.11838298 0.6065405 4280554240
-0.034661405 0.11880767 0.60606062 4280488704
-0.026076099 0.11881543 0.60583335 4280423168
-0.017237719 0.11957807 0.60766667 4280752640
-0.0008897662 0.11935351 0.60833335 4280950016
0.00053333334 0.11946579 0.60800004 4281081856
0.026245419 0.11948986 0.60244441 4280620032
0.036644518 0.11972128 0.60525 4279896064
0.045014035 0.11973771 0.60399997 4281211140
0.050610527 0.11967281 0.60100001 4282723854
0.066623241 0.11941314 0.60683328 4284040993
0.075074524 0.1192977 0.60469562 4284764710
0.084278278 0.11842076 0.60539293 4285553196
0.095341451 0.11831162 0.60613167 4286013487
0.10502686 0.11757861 0.60478729 4286474293
0.11487734 0.11730513 0.60264915 4286936126
0.12478409 0.11706502 0.60452271 4287461704
0.13501832 0.11731301 0.60517508 4287593289
0.14479235 0.11842158 0.60364997 4287724876
0.15489884 0.11878362 0.60430306 4287790926
0.164203 0.11899819 0.6055485 4287791184
0.17362458 0.11912672 0.60815388 4287397455
-0.051485609 0.12141369 0.60759991 4281341184
-0.047520574 0.12079889 0.60618174 4281275392
-0.03559088 0.12061175 0.60359991 4281014272
-0.024142725 0.12102386 0.60404176 4280949248
-0.015321228 0.12095579 0.60479999 4281211648
-0.004247189 0.12169912 0.60479552 4281475328
0.0035738037 0.12130396 0.60413635 4281606400
0.014413049 0.12148184 0.60345834 4281410048
0.023583388 0.1210177 0.60081249 4281410048
0.035952602 0.12203458 0.60354531 4280947968
0.044891454 0.12116899 0.60262954 4281473025
0.054952916 0.12088442 0.60204768 4283448343
0.06440603 0.12082247 0.6047917 4284172577
0.074548364 0.12079655 0.60100001 4284961832
0.080973096 0.12013742 0.60333329 4285552940
0.096671209 0.12073747 0.60105884 4286145331
0.10139035 0.12039912 0.602 4286342711
0.11105264 0.12105264 0.60000002 4286606656
0.14578949 0.12052632 0.60000002 4287855947
0.15486799 0.12045044 0.60050005 4287659081
0.16547939 0.12051272 0.60124999 4287856722
0.17349103 0.12090506 0.60378569 4287529044
-0.054600377 0.087790944 0.6124211 4283519550
-0.05367773 0.09485954 0.61321741 4282268461
-0.049630702 0.097439826 0.611 4281083410
-0.052159939 0.10055351 0.61299998 4278190080
-0.049062058 0.1010704 0.61125004 4278190080
-0.063219838 0.1137961 0.61238462 4280227084
-0.055060171 0.11504492 0.61306667 4280423168
-0.045044862 0.11576488 0.61385298 4280027392
-0.034482505 0.11745744 0.61550003 4279764992
-0.024861652 0.11738326 0.61507136 4279765504
-0.015186043 0.11824547 0.61493325 4280225792
-0.0052447044 0.1186859 0.61348152 4280621056
0.0052597183 0.11853165 0.61571056 4280293121
0.015125791 0.11868702 0.61726665 4278714368
0.024868965 0.11833274 0.61579305 4278452224
0.035013825 0.11838835 0.61696965 4278714368
0.044773851 0.11858789 0.61539996 4280027904
0.054504078 0.11814905 0.61648709 4282791186
0.064865477 0.11871593 0.61552 4283778076
0.074568927 0.11729158 0.61633325 4284238111
0.085915461 0.11695109 0.61496776 4285223976
0.094471902 0.11506528 0.61545259 4285947692
0.10467059 0.11456033 0.61500007 4286540085
0.11444627 0.11447445 0.61427277 4286935101
0.12504631 0.11463783 0.61288005 4287330373
0.13492317 0.11469853 0.61460608 4287724872
0.14520727 0.115621 0.61419046 4287856719
0.15533642 0.11616356 0.61586273 4287725137
0.16508967 0.11606576 0.61325002 4287528268
0.17495105 0.11652576 0.61365712 4287396938
-0.011255263 0.12059211 0.611 4280752896
0.0061372323 0.12097134 0.61111116 4281016320
0.015847625 0.1210447 0.61420828 4280753408
0.024544299 0.12078453 0.6139285 4280028928
0.033305261 0.1209738 0.61294115 4279436288
0.046331666 0.12043587 0.61130005 4280883201
0.055132508 0.12061777 0.61305887 4283119895
0.069705263 0.12049824 0.616 4284172323
0.071326315 0.12049824 0.616 4284238115
-0.057780117 0.10950819 0.62733334 4278255616
-0.04461297 0.10870545 0.6267857 4278190080
0.13793859 0.10979912 0.62900001 4287132742
0.17187369 0.10962456 0.62800002 4288053845
-0.055159949 0.11295016 0.62540829 4279567872
-0.04456903 0.1126599 0.62386012 4278911232
-0.035312936 0.11534058 0.6227023 4278977024
-0.024669738 0.11544882 0.62427783 4278846208
-0.01490699 0.11578089 0.625 4279042816
-0.0047665602 0.11720718 0.62466675 4279634944
0.0023405901 0.11734012 0.62536359 4279307008
0.014620564 0.11633388 0.62511116 4278386688
0.024963245 0.11732044 0.62150002 4278255616
0.037071053 0.11721271 0.62150002 4278386688
0.057201717 0.11560543 0.62256521 4283316504
0.064722881 0.11546122 0.62284899 4283645718
0.0760023 0.11460514 0.62537032 4284172058
0.084877573 0.1143632 0.62411642 4284830245
0.095975362 0.11246216 0.62491661 4285750319
0.10208051 0.11231001 0.62499994 4286145329
0.11637708 0.11272591 0.62440735 4286869562
0.12470994 0.11273856 0.62400001 4287461956
0.13552448 0.11241461 0.62483793 4287790669
0.1445708 0.11231953 0.62390244 4287790669
0.1548845 0.11265714 0.62507898 4287659340
0.16520995 0.11322386 0.62466681 4287725130
0.17406479 0.11323982 0.6242857 4287725391
-0.054284595 0.10947878 0.63556242 4278714368
-0.049255263 0.10947514 0.63566667 4278321152
0.10580694 0.10954235 0.63390917 4286408239
0.11551929 0.10848123 0.63467854 4286869563
0.12435805 0.10822393 0.63405883 4287330371
0.13498369 0.10840449 0.63377416 4287263803
0.14502445 0.10876574 0.6348387 4287330370
0.15461779 0.10857013 0.6360333 4287856972
0.16472362 0.10849854 0.63626671 4288054097
0.17069298 0.10913158 0.63800001 4288053842
0.18131578 0.10990527 0.63599998 4287856717
-0.051862031 0.11077231 0.63185722 4278976512
-0.044919297 0.11087544 0.63199997 4278452224
-0.034949366 0.11269559 0.63163996 4278190080
-0.025309026 0.11284081 0.63209677 4278190080
-0.015425114 0.1137265 0.63147372 4278190080
-0.0049407207 0.11438698 0.63336843 4278190080
0.0024317435 0.1157551 0.63406253 4278190080
0.013819424 0.11378909 0.63014287 4278648832
0.068819076 0.11339715 0.63524997 4283778072
0.075267524 0.11249782 0.63508332 4284106777
0.085467987 0.11189926 0.63467741 4284698402
0.094106548 0.1110687 0.63370371 4285487148
0.10643294 0.11188498 0.63195831 4286276913
0.11361939 0.11152522 0.63096416 4286737722
0.12640138 0.11062375 0.63108337 4287396166
0.13299762 0.11057129 0.6305455 4287790664
0.14709625 0.11069675 0.6314286 4287856461
0.15470113 0.11056793 0.63114291 4287790923
0.16492224 0.11101838 0.63154995 4287922509
0.1759145 0.11080889 0.63479996 4287856976
0.18100701 0.11115307 0.63200003 4287791430
-0.055191413 0.10754138 0.6433478 4278452994
-0.048371803 0.10853522 0.6401428 4278190080
-0.0073210532 0.10981579 0.64200002 4280160259
0.06937632 0.10998684 0.64300001 4283715386
0.074671276 0.1087798 0.64577782 4284239137
0.084862344 0.10919398 0.64499992 4284829475
0.095076896 0.10824757 0.64576316 4285815852
0.10508608 0.10784934 0.64480013 4286342704
0.11436319 0.10629264 0.64484608 4286869049
0.12564726 0.10545324 0.64635706 4287527494
0.13423155 0.10545257 0.64358538 4287724871
0.14470573 0.10594284 0.64426315 4287855941
0.15491018 0.10637219 0.64553577 4288119629
0.1658763 0.10639593 0.64656669 4287988819
0.17550273 0.10777248 0.64392865 4287922515
0.1807684 0.10845649 0.64200002 4287725901
-0.005676555 0.11180639 0.64109093 4278584322
0.068598241 0.11133157 0.64099997 4283975712
0.074390344 0.11082098 0.64130771 4284106523
0.084275432 0.11068288 0.64049995 4284697890
0.098962106 0.11047158 0.64320004 4285947183
0.10177281 0.11076929 0.64099997 4286275374
0.17577386 0.11063105 0.64019996 4287922514
0.078177191 0.10663172 0.65533334 4284567072
0.085228391 0.1058831 0.65424478 4285026847
0.09495046 0.10489319 0.65478957 4285816103
0.10479569 0.10445493 0.65452939 4286473778
0.11546759 0.10297201 0.65526319 4287263807
0.12393633 0.10197121 0.65366668 4287659078
0.13555935 0.10280304 0.65334606 4288053838
0.14467363 0.10259557 0.65421033 4288251730
0.15519939 0.103967 0.65485185 4288251476
0.1639491 0.10411727 0.65473527 4288054097
0.17616874 0.10454226 0.65319228 4287725650
0.18060526 0.10432948 0.65279996 4287725899
0.10907543 0.099318713 0.6673333 4286803248
0.11372281 0.099561155 0.66485721 4287329596
0.12310877 0.099300005 0.662 4288053831
0.1380807 0.099464029 0.667 4288449365
0.14107601 0.098929234 0.6673333 4288251989
0.076863945 0.10496094 0.66214287 4285161537
0.083588287 0.1030243 0.66311771 4284829461
0.095040821 0.10225344 0.66339993 4285618719
0.10544576 0.101542 0.6641764 4286473773
0.1147939 0.10077161 0.6627059 4287395647
0.12574047 0.10052907 0.66437495 4287987784
0.13506113 0.10101079 0.66430432 4288316753
0.14431898 0.10074391 0.66607141 4288317525
0.15558057 0.10149319 0.66461295 4288185683
0.16480185 0.10140573 0.66504163 4288054097
0.17458834 0.10301884 0.66534483 4287922513
0.18160197 0.10322917 0.66674995 4287857234
0.086652629 0.078400001 0.67199999 4284639579
0.094544329 0.077994503 0.6735937 4288853958
0.10287877 0.078594655 0.67520005 4291746536
0.11418948 0.079099998 0.67799997 4292535280
0.086503051 0.086691052 0.67083991 4286546044
0.094831251 0.084833503 0.67240012 4288192158
0.10530268 0.085205957 0.67495549 4287401090
0.11318851 0.084428705 0.67833328 4289178535
0.086142771 0.095501222 0.67572218 4282397466
0.094265282 0.09764494 0.67442858 4283841807
0.10584889 0.096276686 0.67595911 4283710223
0.11471284 0.09678521 0.67524523 4285947687
0.12518606 0.097288497 0.67388636 4288119624
0.13440607 0.097408667 0.6717369 4288317526
0.14552401 0.098068386 0.67425925 4288120146
0.1544224 0.097928613 0.67384225 4288053839
0.16527054 0.098188892 0.67409384 4287988302
0.1744785 0.097965561 0.67520583 4287856718
0.085673153 0.10154633 0.67138094 4284566795
0.093837038 0.10098872 0.67084622 4285486868
0.10108772 0.1005 0.67000002 4286012963
0.12606579 0.1005 0.67000002 4287988041
0.13282456 0.1005 0.67000002 4288382030
0.14751755 0.10050001 0.67000002 4288383314
0.15339474 0.10050001 0.67000002 4288185170
0.16867547 0.10050001 0.67000002 4287988306
0.1753884 0.10106761 0.67076927 4287856977
0.18096842 0.10079999 0.67199999 4287660106
-0.0030498747 0.24873336 0.67628568 4278913027
0.0017823098 0.24829282 0.6771667 4280095753
-0.010125439 0.25551844 0.67900008 4278190080
-0.00459002 0.25482181 0.6776793 4278190080
0.0038986169 0.25475442 0.67766654 4278190080
-0.0017868422 0.26096407 0.67899996 4278190080
